# .PCD v0.7 - Point Cloud Data file format
VERSION 0.7
FIELDS x y z
SIZE 4 4 4
TYPE F F F
COUNT 1 1 1
WIDTH 295
HEIGHT 1
VIEWPOINT 0 0 0 1 0 0 0
POINTS 295
DATA ascii
2.4328165 -1.579286 0.41213211
2.370733 -1.6172044 0.41181585
2.3079362 -1.6535388 0.411414
2.2453659 -1.6877075 0.41099367
2.1831689 -1.7198362 0.41055807
2.1207585 -1.7507066 0.41010952
2.0584202 -1.7799177 0.40964615
1.9965757 -1.8072119 0.40916985
1.9348913 -1.8329369 0.4086805
1.8731196 -1.8574928 0.40818048
1.8122195 -1.8798885 0.40766779
1.7512693 -1.9011586 0.40714505
1.690608 -1.9209952 0.4066121
1.6302737 -1.9394448 0.40606987
1.5706023 -1.9562303 0.40551817
1.5112939 -1.9716933 0.40495804
1.4523616 -1.9858546 0.4043898
1.3938355 -1.9987597 0.40381438
1.3357258 -2.0104289 0.40323204
1.2780424 -2.0208824 0.40264302
1.2207956 -2.0301394 0.40204757
1.1640204 -2.0374386 0.40132779
1.630362 -0.78569192 0.4475126
1.7038865 -0.8704223 0.47570124
1.8099523 -0.97822928 0.51433855
1.9304459 -1.1015534 0.55869603
2.0698388 -1.2451601 0.61049867
2.233191 -1.4144938 0.67174882
2.4275541 -1.6171416 0.74523759
2.6610916 -1.8619325 0.83431613
2.9498737 -2.166105 0.94518089
2.0331976 -2.9917595 1.0082541
1.7005242 -2.6276045 0.87658477
1.4458389 -2.3474228 0.77577806
1.2418367 -2.1217468 0.69502199
1.0771611 -1.9384598 0.62982714
0.94052422 -1.7853733 0.57570559
0.82537138 -1.6554389 0.53010374
0.75169033 -1.5959769 0.50779146
1.6614767 -0.76278907 0.6615141
1.6366413 -0.79788971 0.66148466
1.7335538 -0.89590365 0.71174586
1.8429329 -1.0073047 0.76912403
1.9685122 -1.136063 0.83560193
2.1132033 -1.2853531 0.9129799
2.2847579 -1.463412 1.0054902
2.4883368 -1.675878 1.1161908
2.7383649 -1.938153 1.2531292
1.9215866 -2.8682656 1.3697124
1.6163721 -2.5342669 1.1967221
1.3786139 -2.2727797 1.0620261
1.1882312 -2.0622308 0.95422184
1.0334954 -1.8900667 0.86662751
0.90437871 -1.745469 0.79353625
0.7950424 -1.6221669 0.73167956
0.74436134 -1.6087328 0.72031707
1.6608269 -0.77022564 0.90998024
1.6644896 -0.81975222 0.92551446
1.7639424 -0.92059934 0.99598795
1.8773191 -1.0363358 1.0771458
2.0068955 -1.1694484 1.1708211
2.1590655 -1.3267082 1.2818485
2.3376245 -1.5122771 1.4132112
2.5521765 -1.7364115 1.5722929
2.7076514 -1.9356302 1.7012337
2.6529403 -1.9904362 1.7010703
2.5968096 -2.0442216 1.700887
2.5399981 -2.0960474 1.7006811
2.4823124 -2.1464577 1.7004589
2.4235628 -2.1952415 1.7002112
2.3644023 -2.242166 1.6999466
2.3040895 -2.2880597 1.6996673
2.2432406 -2.3318863 1.6993624
2.1817105 -2.3742552 1.6990422
2.1194339 -2.41505 1.6987023
2.0569713 -2.4540112 1.6983477
1.9934136 -2.4917498 1.6979737
1.9296634 -2.5275502 1.6975809
1.8654146 -2.561877 1.6971742
1.8011504 -2.5944135 1.6967542
1.7359219 -2.6256778 1.6963155
1.5452348 -2.4556918 1.5684587
1.3231795 -2.2117476 1.3975712
1.1440576 -2.0139058 1.2597817
0.99655288 -1.8500259 1.1463648
0.87300599 -1.7118932 1.0514594
0.76880032 -1.5945992 0.9714762
0.73847032 -1.6234277 0.98157966
1.6487287 -0.7920624 1.2415272
1.7386973 -0.88591051 1.3291497
1.8465691 -0.99593854 1.4340216
1.9693604 -1.121937 1.5545944
2.0773633 -1.2486992 1.668245
2.0405359 -1.2919681 1.6680948
2.0028386 -1.3342128 1.6679287
1.9643762 -1.375471 1.667751
1.9252648 -1.4152826 1.6675525
1.8852021 -1.4544237 1.6673436
1.8446362 -1.4921584 1.6671183
1.8034203 -1.5288706 1.6668818
1.761508 -1.5644898 1.6666301
1.7192059 -1.5987034 1.666363
1.6760572 -1.6321727 1.6660855
1.6325837 -1.6642318 1.6657929
1.5885971 -1.695238 1.6654898
1.5440595 -1.7251178 1.6651723
1.4993055 -1.7536011 1.6648406
1.4541805 -1.7810966 1.6645029
1.4085915 -1.8074623 1.6641514
1.3625664 -1.8326916 1.6637863
1.3162351 -1.8569231 1.6634156
1.2698443 -1.8797895 1.6630321
1.2228162 -1.9018103 1.6626388
1.1757878 -1.9224751 1.6622334
1.1288848 -1.9419563 1.6618237
1.0610384 -1.9236546 1.6301737
0.92921966 -1.7774333 1.4926957
0.81765264 -1.6529416 1.3764668
0.75663304 -1.6196517 1.3381758
1.6495565 -0.80668187 1.6857301
1.6157877 -0.83682936 1.676697
1.5829022 -0.86625463 1.6688181
1.5505923 -0.89523482 1.6620028
1.5188092 -0.92381358 1.6561655
1.4875109 -0.95203471 1.6514024
1.4566517 -0.97993684 1.6475749
1.4264224 -1.0073493 1.6447318
1.3963189 -1.034731 1.6428398
1.3667613 -1.0616978 1.6418334
1.3377087 -1.0882899 1.6418006
1.3086734 -1.1149504 1.6426418
1.2800688 -1.1413014 1.6443737
1.251636 -1.167578 1.6469516
1.2233441 -1.1938114 1.6504353
1.1951591 -1.2200302 1.6547688
1.1670489 -1.2462634 1.6599569
1.1392001 -1.2723372 1.6660012
1.1113634 -1.2984834 1.6729621
1.0835052 -1.3247279 1.6807308
1.6793944 -0.77848035 1.6448866
1.6577702 -0.81105721 1.6417173
1.6387793 -0.8447507 1.6418042
1.6192179 -0.87806612 1.6418884
1.5990323 -0.91096264 1.6419665
1.5782307 -0.94342965 1.6420383
1.5568215 -0.97545671 1.642104
1.5348128 -1.0070336 1.6421635
1.5122696 -1.0381887 1.64222
1.4891428 -1.0688758 1.6422703
1.465632 -1.0988284 1.6423134
1.4414231 -1.1285959 1.6423544
1.4166555 -1.1578685 1.6423891
1.3915968 -1.1864372 1.6424202
1.3657943 -1.2147421 1.6424456
1.3396757 -1.2422917 1.642464
1.312871 -1.2695973 1.64248
1.2857769 -1.2961414 1.6424893
1.2580023 -1.3224183 1.642496
1.2299649 -1.3479279 1.642496
1.2014929 -1.3729377 1.6424931
1.1723492 -1.3976467 1.6424874
1.1429815 -1.4215822 1.6424752
1.1129491 -1.445194 1.6424601
1.0827194 -1.4680283 1.6424388
1.0518329 -1.4905158 1.6424142
1.0207754 -1.5122229 1.6423837
0.9891066 -1.533617 1.6423532
0.95701921 -1.5543965 1.6423162
0.92479932 -1.5743929 1.6422737
0.89197731 -1.594045 1.6422307
0.85876465 -1.6130632 1.6421816
0.82517242 -1.6314406 1.6421261
0.77399069 -1.6132749 1.6062109
0.74537694 -1.64089 1.616783
1.6524827 -0.78783983 1.2163012
1.7155647 -0.86321437 1.2767471
1.8102244 -0.95967841 1.3628173
1.9172027 -1.0692937 1.4609417
2.0402749 -1.1960649 1.5747054
2.1375608 -1.3150362 1.6717864
2.1084785 -1.3598635 1.671944
2.0784404 -1.4040378 1.6720883
2.0478768 -1.4472963 1.672226
2.0162203 -1.4902915 1.6723555
1.9837254 -1.5326443 1.6724758
1.950404 -1.5743397 1.6725864
1.9162681 -1.6153631 1.6726876
1.8816937 -1.6554374 1.6727824
1.8460459 -1.6951492 1.6728686
1.8099201 -1.7338327 1.6729445
1.7727319 -1.7721133 1.6730114
1.7348596 -1.809727 1.6730728
1.6965655 -1.8462942 1.6731241
1.6572255 -1.8824009 1.673166
1.6175685 -1.9175255 1.6732024
1.576877 -1.9521527 1.673229
1.5358403 -1.9857122 1.673246
1.4937848 -2.0187342 1.6732533
1.4511243 -2.0510139 1.6732547
1.4082322 -2.082298 1.6732512
1.3642859 -2.1129057 1.6732332
1.3198235 -2.1428277 1.6732136
1.2531428 -2.1350765 1.6448903
1.0968112 -1.9625125 1.4926895
0.96471965 -1.8159027 1.364208
0.85251671 -1.6906279 1.2551236
0.76642424 -1.6039591 1.1773691
1.6691287 -0.76312983 0.9162913
1.6365614 -0.79149711 0.90808117
1.7245874 -0.88061774 0.96773893
1.8236412 -0.98151904 1.0354984
1.9360416 -1.0966982 1.112977
2.0648355 -1.2294241 1.2024533
2.2140772 -1.3840463 1.30696
2.3877399 -1.564875 1.4293503
2.5962844 -1.7830428 1.5772673
2.7616298 -1.9851632 1.7035146
2.7179778 -2.0444269 1.7037089
2.6735139 -2.1023374 1.7038878
2.6279099 -2.1593578 1.7040532
2.5809164 -2.2160227 1.7042109
2.5330679 -2.2711964 1.7043487
2.4842436 -2.3255274 1.7044777
2.4342272 -2.378783 1.7045878
2.3832645 -2.4311619 1.704689
2.3313658 -2.4826524 1.7047812
2.2783296 -2.5330071 1.7048545
2.2242846 -2.5823207 1.7049139
2.1693504 -2.6306968 1.704964
2.1134393 -2.6779997 1.7050003
2.0565705 -2.7242117 1.7050225
1.9988558 -2.7694438 1.7050356
1.9402164 -2.8135543 1.7050345
1.8013153 -2.7359924 1.6330748
1.5358388 -2.4454916 1.4385947
1.3245617 -2.2131813 1.2838978
1.1524626 -2.0229423 1.1579019
1.0096036 -1.8641112 1.0533696
0.888246 -1.7283398 0.96462733
0.78546131 -1.6125768 0.88950229
0.74393713 -1.6144655 0.88056403
1.647338 -0.77552962 0.67923361
1.6707827 -0.8319295 0.69664776
1.7648649 -0.92736083 0.74445343
1.8721696 -1.0369065 0.79944146
1.9937466 -1.1617862 0.86229742
2.1340055 -1.3066958 0.93531734
2.2978265 -1.476878 1.0212717
2.4919488 -1.6795754 1.12375
2.7259705 -1.925099 1.2480609
1.871986 -2.8143673 1.2549621
1.5880905 -2.503396 1.0995915
1.3640704 -2.2567902 0.97702736
1.1828412 -2.0561934 0.87790459
1.0332564 -1.8896296 0.79611331
0.9077329 -1.7489524 0.72745848
0.800933 -1.6284282 0.66906023
0.74629533 -1.604821 0.65160286
1.628516 -0.78760606 0.4687421
1.706153 -0.87233126 0.49678296
1.8072685 -0.97514915 0.53257996
1.922334 -1.0929254 0.57369351
2.0546131 -1.2291735 0.62132853
2.2071719 -1.3872418 0.67667234
2.3883884 -1.5760485 0.7428655
2.6037061 -1.8015472 0.82196188
2.8687451 -2.0804429 0.91996604
1.9537343 -2.9052722 0.89795208
1.6484642 -2.5707066 0.78204906
1.4098206 -2.3078449 0.6914528
1.2168179 -2.0940638 0.6181978
1.059857 -1.9191358 0.55857736
0.92879999 -1.7721081 0.50879723
0.81694525 -1.6457256 0.4663173
0.7496841 -1.5967752 0.44678804
2.362205 -1.5510886 0.41081327
2.3269498 -1.6040566 0.41101581
2.2910767 -1.6560265 0.41120833
2.2540064 -1.7077857 0.41139325
2.216346 -1.7585444 0.41156828
2.1777875 -1.8086762 0.41173422
2.1383967 -1.8582247 0.41189253
2.0981154 -1.9071308 0.41204163
2.0569775 -1.9554132 0.4121823
2.0149865 -2.0030646 0.41231441
1.9725291 -2.0497608 0.41243836
1.9288487 -2.0961382 0.41255349
1.8843778 -2.1419246 0.41266161
1.8394445 -2.1867335 0.41276103
1.7932965 -2.2312083 0.4128519
1.7467327 -2.2747419 0.41293514
1.6989654 -2.3179448 0.41301021
1.6507989 -2.3602145 0.41307783
1.6018347 -2.4018497 0.4131377
1.55162 -2.4430764 0.41318807
