# .PCD v0.7 - Point Cloud Data file format
VERSION 0.7
FIELDS x y z
SIZE 4 4 4
TYPE F F F
COUNT 1 1 1
WIDTH 811
HEIGHT 1
VIEWPOINT 0 0 0 1 0 0 0
POINTS 811
DATA ascii
0.16416144 0.95516354 0.36222208
0.18189679 0.92516971 0.35254771
0.20147844 0.90933627 0.34839895
0.22251832 0.90171897 0.34760353
0.24537474 0.90132582 0.34979552
0.27113977 0.90981025 0.35572314
0.30393559 0.93770021 0.36958802
1.0548098 1.0567631 0.57198471
1.0603611 1.0140115 0.56281155
1.0797532 0.98557007 0.56158906
1.1108143 0.96762621 0.5667336
1.1632373 0.96680188 0.58273727
2.031141 1.1337247 0.90701246
2.026279 1.070868 0.89502895
2.0559886 1.0270951 0.89892155
2.1493397 1.0130525 0.93080771
3.0338187 1.1839956 1.2816548
3.0159259 1.0986612 1.2651535
3.0696361 1.0399103 1.2794089
5.144412 -0.62800902 2.1024349
5.1450624 -0.74416494 2.1112499
3.7973895 -0.63478374 1.5653127
3.7981901 -0.72179574 1.5734254
3.7990708 -0.80890357 1.5823588
3.8000364 -0.89689004 1.5921026
3.8010955 -0.98656988 1.6028354
3.8022296 -1.0766393 1.614277
3.8034379 -1.1671844 1.6265935
3.804738 -1.2597704 1.6399095
3.8061204 -1.3538016 1.6541744
3.8075731 -1.4486431 1.6693921
3.8091168 -1.5459476 1.6856591
3.8107274 -1.6443133 1.7028599
3.812417 -1.744656 1.7212427
3.8141837 -1.8471347 1.7407739
3.816026 -1.9519188 1.7614208
-5.8634658 -1.955063 1.9674405
-5.8620377 -1.8033983 1.9439056
-5.8606992 -1.6528881 1.9217083
-5.8594708 -1.5055466 1.9011116
-5.858336 -1.3589668 1.881758
-5.8573031 -1.2140554 1.863696
-5.8563752 -1.0706203 1.8469951
-5.8555522 -0.92847598 1.8316133
-5.8548279 -0.78640169 1.8172424
-5.8542161 -0.64631146 1.8042854
-5.8537068 -0.50595665 1.7924064
-5.8533049 -0.36620748 1.7816235
-5.8530111 -0.22689614 1.7720258
-5.8527842 0.19108902 1.7499502
-5.8529267 0.33030367 1.7448246
-5.8531804 0.47093573 1.7407317
-5.8535457 0.61213386 1.7378808
-5.8540206 0.75407165 1.7360479
-5.8546052 0.89692628 1.7352351
-5.8553004 1.0408792 1.7356735
-5.8561049 1.1861169 1.7371471
-5.8570256 1.333909 1.7398529
-5.858057 1.4834043 1.7437526
-5.859189 1.6337105 1.7487797
-5.8604388 1.7872431 1.7551262
-5.8617969 1.9431449 1.7627429
0.15736663 1.0019474 0.26482996
0.16969219 0.93338537 0.24789211
0.18822716 0.9104349 0.243119
0.20831797 0.89817512 0.24130186
0.22995496 0.89347869 0.24167715
0.25376159 0.89635646 0.24425763
0.28144106 0.9103139 0.25007629
1.059415 1.0828971 0.40975362
1.0509459 1.0249666 0.39780331
1.0649682 0.99101591 0.39497161
1.0906495 0.96828991 0.39674652
1.1309958 0.95776355 0.40394112
2.0592217 1.1695632 0.65573055
2.0172405 1.0847647 0.63544494
2.0363646 1.0351185 0.63505203
2.0921419 1.0033743 0.64631331
3.0062239 1.1149 0.90022492
3.0393701 1.0484976 0.90446138
5.1389689 -0.62461388 1.50625
5.1396375 -0.74154878 1.5128917
3.7918346 -0.63453549 1.1214608
3.7926431 -0.72211343 1.1275802
3.7935414 -0.81049508 1.1342714
3.7947934 -0.89914936 1.1415818
3.7958999 -0.98946536 1.1494684
3.7970884 -1.0801963 1.1579928
3.7983754 -1.1728884 1.1671417
3.7997417 -1.2662159 1.1769612
3.8011959 -1.3610252 1.1874613
3.802737 -1.4574499 1.1986688
3.8043644 -1.5556315 1.2106128
3.8060775 -1.6557195 1.2233254
3.8078609 -1.7570598 1.236737
3.8097422 -1.861429 1.2510871
3.8117073 -1.9682114 1.2664016
-5.8575568 -1.8716379 1.2463975
-5.8561678 -1.7213428 1.2291013
-5.8548818 -1.5731926 1.2128487
-5.8537068 -1.4280623 1.19743
-5.8526196 -1.2824992 1.18287
-5.8516464 -1.1395648 1.1692903
-5.8507781 -0.99799001 1.1564976
-5.8500113 -0.85655284 1.1445403
-5.8493524 -0.71613765 1.133325
-5.8488026 -0.57657212 1.1229342
-5.848361 -0.43768752 1.113239
-5.8480287 -0.29931831 1.1043261
-5.8478065 -0.16130118 1.0961773
-5.8476915 0.11534441 1.0819048
-5.8478007 0.25429794 1.0758708
-5.8480215 0.39355132 1.0704541
-5.8483543 0.53327113 1.0658588
-5.8488016 0.67466056 1.0618898
-5.8493571 0.81582803 1.0586095
-5.8500233 0.95797801 1.0559273
-5.8508067 1.1023489 1.0540926
-5.8517017 1.248088 1.0528891
-5.8527079 1.3953912 1.052418
-5.8538246 1.5444614 1.0526648
-5.8550515 1.6955104 1.0536387
-5.8563881 1.8487598 1.0553625
0.15952313 0.95113099 0.14298187
0.17654914 0.91628993 0.13852862
0.19578677 0.89863735 0.13673082
0.21650046 0.88980776 0.13635261
0.23898712 0.88831413 0.13719282
0.26420093 0.89536947 0.13946785
0.29544944 0.91900474 0.14448297
1.0464264 1.0384574 0.23253241
1.0545282 0.99808979 0.22974326
1.0759037 0.97109669 0.23005918
1.1098598 0.9551357 0.23317711
1.1751535 0.9639774 0.24282755
2.0138626 1.0975833 0.37614906
2.0239275 1.0424359 0.37459651
2.0675471 1.0045267 0.37946039
3.0028172 1.1271298 0.53634697
3.0227978 1.055194 0.53709269
9.9229498 1.9804598 1.7288316
9.9225693 1.7436711 1.7263378
9.9222889 1.5090024 1.7247276
9.9221077 1.2762442 1.7239915
9.9220285 1.0451409 1.7241206
9.9220505 0.81540978 1.7251073
9.9221735 0.58680946 1.7269293
9.9223986 0.35906911 1.7295837
9.9227257 0.13193606 1.7330525
9.9236879 -0.32226712 1.7425003
9.9243183 -0.54790568 1.7484404
9.9250565 -0.77589017 1.7552334
9.9258919 -1.0029849 1.7628857
9.9268303 -1.2311741 1.7713403
9.9278708 -1.4607092 1.7805963
9.9290142 -1.6918472 1.790854
9.9302597 -1.9248515 1.8017725
-5.8543735 -1.8559921 0.54287726
-5.8530073 -1.7071044 0.53043759
-5.8517447 -1.5603102 0.51851749
-5.8505774 -1.4143229 0.50704604
-5.8495164 -1.2700546 0.49604627
-5.8485622 -1.1273142 0.48548314
-5.8477154 -0.98591787 0.47534451
-5.8469768 -0.84568745 0.46560904
-5.8463459 -0.70645028 0.45626727
-5.8458238 -0.56803799 0.44729021
-5.845408 -0.42925993 0.43866506
-5.8451028 -0.29098645 0.43039554
-5.8449092 -0.15305433 0.42245591
-5.8448548 0.12243226 0.40754059
-5.8449945 0.26030862 0.40053898
-5.8452482 0.39951399 0.39384073
-5.8456111 0.53816509 0.38742694
-5.8460889 0.67848361 0.38129887
-5.8466787 0.81961602 0.3754423
-5.8473806 0.96173751 0.3698591
-5.8481941 1.1050278 0.3645415
-5.8491187 1.2496719 0.35948253
-5.850162 1.3969426 0.35469112
-5.8513083 1.5448898 0.35014313
-5.8525734 1.6959 0.34585509
-5.8539491 1.8491133 0.34181821
0.15964989 0.94591475 0.028714133
0.17684978 0.91202265 0.02800733
0.19620097 0.89475566 0.027829951
0.21704611 0.88625723 0.027952719
0.23971443 0.88516486 0.02834041
0.26525009 0.89289349 0.02905423
0.29739025 0.91876382 0.030415691
1.0449424 1.0239623 0.05934887
1.0568901 0.9871881 0.059491999
1.0813218 0.96264428 0.060389582
1.1200453 0.95010281 0.062123396
2.0392556 1.1488271 0.11040814
2.0112572 1.0710709 0.10891435
2.0339561 1.0220839 0.1102315
2.0997982 0.99364638 0.1139567
3.0322261 1.1800822 0.16577946
3.0017366 1.0874431 0.16468203
3.0540128 1.0257124 0.16820845
9.9201603 1.8380558 0.56441629
9.919816 1.598985 0.56823659
9.9195757 1.3620055 0.57229346
9.9194412 1.126793 0.57657373
9.9194126 0.89308494 0.58110017
9.9194899 0.66059077 0.58587825
9.9196739 0.42904341 0.5908795
9.9199648 0.1981979 0.59612828
9.9208698 -0.26325256 0.60734773
9.9214792 -0.49218458 0.61333025
9.9222002 -0.72341776 0.61958128
9.9230299 -0.95547915 0.62607366
9.9239616 -1.1868743 0.63284028
9.9250011 -1.4196068 0.63988394
9.926157 -1.6557266 0.64721942
9.927412 -1.8919594 0.65482438
-5.8547306 -1.969197 -0.054373987
-5.8533077 -1.8186206 -0.062765516
-5.8519788 -1.6691887 -0.071047038
-5.8507643 -1.5229195 -0.079239897
-5.8496461 -1.3774089 -0.087349348
-5.8486352 -1.2335669 -0.09539023
-5.6686416 -1.0577857 -0.10020847
-5.3481684 -0.86908829 -0.10181397
-5.8546257 -1.9396336 0.279075
-5.8532276 -1.7906284 0.27410987
-5.8519311 -1.6438017 0.26927987
-5.8507366 -1.4989489 0.26457557
-5.8496447 -1.3558748 0.2599985
-5.8486485 -1.2133261 0.25552002
-5.847764 -1.0732656 0.2511628
-5.8469839 -0.93444186 0.24691842
-5.8463035 -0.79564703 0.24276298
-5.8457298 -0.65776998 0.23871799
-5.8452635 -0.52064759 0.23475569
-5.8449039 -0.38411975 0.2308795
-5.8446517 -0.24802919 0.22710322
-5.8445072 -0.11222027 0.22339992
-5.8445425 0.16019031 0.21622942
-5.8447237 0.29710364 0.21276222
-5.8450141 0.43435955 0.2093662
-5.8454132 0.57211781 0.20603569
-5.8459215 0.71054018 0.20276514
-5.8465385 0.84979159 0.19956975
-5.8472638 0.99004042 0.19643402
-5.8481035 1.1325197 0.19336995
-5.8490453 1.2752981 0.19034937
-5.8501019 1.4206936 0.18739198
-5.8512664 1.5678421 0.18449673
-5.8525386 1.7169474 0.181659
-5.8539171 1.8682232 0.17886348
0.15614909 0.96270955 0.0039716037
0.17203853 0.91821605 0.0038802284
0.19103011 0.89787835 0.003908514
0.21155813 0.88734108 0.0040002032
0.2338035 0.88434821 0.0041491976
0.25856304 0.88957411 0.0043632747
0.28840172 0.90882725 0.0046793041
1.0446061 1.0265675 0.020305477
1.0557313 0.98838526 0.02105663
1.0798609 0.96300036 0.022106564
1.1183527 0.94974148 0.023505053
2.0310605 1.1388925 0.052964851
2.0118029 1.0653747 0.053910673
2.0379987 1.0173081 0.056121614
2.1169291 0.99398595 0.059904709
3.0148118 1.1592705 0.092580833
3.0056384 1.0739851 0.094846196
3.0784874 1.0176952 0.099827223
9.9198723 1.767713 0.37872091
9.9195557 1.5257378 0.389166
9.9193487 1.2857282 0.39991653
9.9192495 1.0474564 0.41097116
9.919261 0.81063169 0.42236391
9.919383 0.57495308 0.43407714
9.9196148 0.34017777 0.44614658
9.9199572 0.10601343 0.45857388
9.9204121 -0.12813358 0.4713794
9.9209776 -0.36205187 0.48460186
9.9216499 -0.59466809 0.49820659
9.9224386 -0.82972252 0.51226145
9.9233408 -1.0657547 0.52677149
9.9243469 -1.3012791 0.54175115
9.9254656 -1.5383171 0.55721921
9.9266958 -1.7771527 0.57320559
-5.8561516 -1.8892282 0.94742066
-5.8548183 -1.743172 0.9388386
-5.853591 -1.6002632 0.93082738
-5.8524518 -1.4580952 0.9232716
-5.8514104 -1.3175992 0.91619343
-5.8504682 -1.1785988 0.90958756
-5.8496189 -1.0398693 0.90342098
-5.8488765 -0.90336347 0.8977316
-5.8482294 -0.766819 0.89245337
-5.8476882 -0.63216442 0.88764244
-5.8472447 -0.49717382 0.88324004
-5.8469043 -0.36273372 0.87925857
-5.8466663 -0.22869414 0.87570077
-5.8465724 0.17352222 0.86752421
-5.8467498 0.30846173 0.86562824
-5.8470292 0.44271925 0.86413926
-5.847415 0.57849634 0.86308664
-5.8479047 0.71492451 0.86245126
-5.8484993 0.85216129 0.86224467
-5.8492031 0.99141896 0.86249512
-5.8500056 1.1307696 0.86316752
-5.8509188 1.2724978 0.86431229
-5.8519282 1.4146492 0.86588192
-5.8530483 1.5595638 0.86795515
-5.8542719 1.7063646 0.87050694
-5.8556085 1.8563837 0.8736192
0.16198312 0.94179982 0.11524267
0.1796864 0.911322 0.11208458
0.19931316 0.89541894 0.11077888
0.22046591 0.88793677 0.11058997
0.24355972 0.88792926 0.11141868
0.26981622 0.89735234 0.11353854
0.30449504 0.92989969 0.1187336
1.0507309 1.0646501 0.19266883
1.0485046 1.0120341 0.18858862
1.0654192 0.97960019 0.18821548
1.0947747 0.95867288 0.19018723
1.1433567 0.95325142 0.19555868
2.0147455 1.1049155 0.31594893
2.0209665 1.0457802 0.31483072
2.0629251 1.0053091 0.31951365
3.0014114 1.1205699 0.45790395
3.0275495 1.0483239 0.46102837
9.9221802 1.907119 1.5164056
9.9218321 1.6629267 1.5208191
9.9215927 1.4209924 1.5262446
9.9214611 1.1809552 1.5326623
9.9214401 0.94255209 1.5400928
9.9215288 0.70547533 1.5485054
9.9217272 0.46944141 1.5579436
9.9220362 0.23418961 1.568365
9.922987 -0.23558101 1.5923228
9.9236269 -0.46972224 1.6058558
9.9243784 -0.7044245 1.620461
9.9252405 -0.93995929 1.6361486
9.9262152 -1.1766018 1.652968
9.9272928 -1.4128629 1.6708757
9.9284897 -1.6525537 1.6900058
9.9297886 -1.8924123 1.7102885
-5.8609819 -1.9576454 1.6493767
-5.8596616 -1.8138682 1.635681
-5.8584223 -1.6710266 1.6229129
-5.8572745 -1.5300732 1.6110244
-5.8562183 -1.3908283 1.5998744
-5.8552561 -1.2531204 1.5896629
-5.8543868 -1.116784 1.5802531
-5.8536067 -0.98060811 1.5716876
-5.8529267 -0.84654808 1.5639371
-5.8523374 -0.71235657 1.5568964
-5.8518448 -0.57893461 1.550598
-5.8514481 -0.44613534 1.5450289
-5.8511496 -0.31381437 1.5402875
-5.8509488 -0.18182911 1.536364
-5.8509316 0.21556649 1.5287982
-5.8511229 0.34762076 1.5278833
-5.8514132 0.48107374 1.5275708
-5.8518028 0.61504924 1.5280716
-5.8522964 0.75073463 1.5294251
-5.8528838 0.88621038 1.5314628
-5.8535767 1.0237182 1.5343802
-5.8543625 1.1613188 1.5380979
-5.8552527 1.3012952 1.5426203
-5.8562422 1.4427669 1.5480257
-5.8573303 1.585914 1.5543324
-5.8585258 1.7320381 1.5615304
-5.8598094 1.8791229 1.5695971
0.15782146 0.96534282 0.22847065
0.17421773 0.92423153 0.2197458
0.19339314 0.9046402 0.21622641
0.21407089 0.89455771 0.21509719
0.23649676 0.89195192 0.21592464
0.26152766 0.89766896 0.21892118
0.29186583 0.91807586 0.22573954
1.0490834 1.0303916 0.35645059
1.0615959 0.99318063 0.35331139
1.08699 0.96850675 0.35476783
1.1275382 0.95656031 0.36132646
2.0274577 1.1331543 0.58176768
2.0190673 1.0652541 0.57375085
2.0505614 1.0193354 0.57757431
3.0112033 1.1500473 0.82485646
3.0182199 1.0701715 0.82257617
5.1382532 -0.58179653 1.4394162
5.1389604 -0.70486373 1.4505022
3.8162146 -0.61535805 1.0858176
3.792259 -0.7035383 1.0884312
3.793211 -0.79658955 1.09883
3.7942626 -0.89063495 1.1099805
3.7954135 -0.98580217 1.1219846
3.796653 -1.0815051 1.1347402
3.7982762 -1.1786693 1.1484904
3.799768 -1.2772868 1.1630428
3.8013575 -1.3775731 1.1785055
3.8030443 -1.4796872 1.1949995
3.8048136 -1.583012 1.2124035
3.8066764 -1.6884768 1.2308466
3.8086467 -1.7970871 1.250572
3.8106937 -1.9074215 1.2712734
-5.8652692 -1.7730634 2.3253818
-5.8641057 -1.6328756 2.3080568
-5.8630214 -1.4933757 2.2919827
-5.8620315 -1.3565899 2.2772188
-5.8611217 -1.2201823 2.263531
-5.8603015 -1.0850848 2.251112
-5.8595695 -0.95114231 2.2396941
-5.8589277 -0.81820536 2.2294905
-5.858377 -0.68612802 2.2204781
-5.8579149 -0.55476755 2.2124007
-5.857543 -0.42295679 2.2055664
-5.8572636 -0.2926167 2.1996748
-5.8570752 -0.16155684 2.1949008
-5.856976 0.10018881 2.1885226
-5.8570666 0.23114862 2.1870258
-5.8572497 0.36234933 2.1865375
-5.8575277 0.49495912 2.1870925
-5.8578973 0.62706268 2.188755
-5.8583641 0.76086867 2.1916072
-5.8589244 0.89549488 2.1955087
-5.8595786 1.031093 2.2005901
-5.8603334 1.168883 2.2069471
-5.8611751 1.306906 2.2143314
-5.8621173 1.4474704 2.2230527
-5.8631458 1.5885869 2.2329509
-5.8642755 1.7326252 2.2442644
-5.8655076 1.8798213 2.2569373
0.16766791 0.94414538 0.33085591
0.18615212 0.91841233 0.32347044
0.20629273 0.90471131 0.32047331
0.22802621 0.89890742 0.32048109
0.25187132 0.90070564 0.32340559
0.27937993 0.91306961 0.33042446
1.0540463 1.0585816 0.53167415
1.0589451 1.0129758 0.52265203
1.0793109 0.98333764 0.52186835
1.1126641 0.96524835 0.52761298
1.173519 0.96906126 0.54639351
2.0215158 1.0939416 0.84191549
2.0397909 1.0407159 0.84103763
2.0984056 1.0073245 0.8572892
3.0513375 1.2009696 1.2182766
3.0133126 1.1026561 1.1956089
3.0675011 1.039187 1.2104664
5.1442189 -0.66537863 2.0664942
3.796612 -0.58299792 1.5358691
3.7974703 -0.67574871 1.5478183
3.7984231 -0.76865643 1.5608152
3.7994828 -0.86322135 1.575002
3.8006332 -0.95817977 1.5902122
3.8018806 -1.0543548 1.6065432
3.8032248 -1.1518837 1.6241193
3.8046644 -1.25091 1.6429082
3.8061993 -1.3515851 1.6630453
3.8078148 -1.4533017 1.6843052
3.8095345 -1.5577457 1.7071426
3.8113325 -1.6635461 1.731298
3.81322 -1.7716559 1.7570491
3.8151796 -1.8814384 1.7841446
3.81724 -1.9947567 1.8131565
0.16263038 0.97090393 0.46540117
0.18013093 0.93628669 0.45104313
0.19981337 0.91866052 0.44506463
0.22101852 0.90982831 0.44358173
0.24402976 0.90838462 0.44598228
0.26985276 0.91564184 0.45300192
0.30198258 0.94022727 0.46908399
1.0721271 1.102223 0.75148833
1.0605901 1.0386429 0.72697395
1.0753379 1.0030847 0.72169065
1.1027333 0.97963762 0.72545248
1.1467443 0.96993196 0.74031091
2.0349424 1.1325878 1.170344
2.0358152 1.0692801 1.1586127
2.0738149 1.025889 1.1688805
3.0211544 1.1459398 1.650564
3.0426574 1.0707129 1.6524462
4.3428988 -0.62040621 2.3948448
3.8055625 -0.63615 2.1134446
3.8064671 -0.72956562 2.1301844
3.8074658 -0.82389885 2.1484401
3.8085566 -0.91927624 2.1681695
3.8097322 -1.0151155 2.1894083
3.8110058 -1.1129721 2.2123258
3.8123593 -1.211549 2.2367592
3.8138106 -1.3124558 2.2630248
3.8153398 -1.4143659 2.2910199
3.8169429 -1.5174029 2.3206956
3.8186407 -1.6232771 2.3524632
3.8204215 -1.7314123 2.3862662
3.8221421 -1.8411163 2.4219186
0.16415158 0.98653626 0.63625079
0.1816646 0.95096654 0.61643153
0.20144582 0.93290615 0.60821223
0.22269765 0.92369533 0.60606611
0.24571256 0.92177218 0.60909766
0.27140373 0.92824864 0.61816096
0.30276456 0.95040452 0.63824856
1.0688188 1.0600129 0.9962768
1.0805235 1.0211574 0.9861573
1.105244 0.99520111 0.98881739
1.1443297 0.9814676 1.0046645
2.0600893 1.1690575 1.6110859
2.0432112 1.0952848 1.581118
2.0709534 1.0467944 1.5870817
2.1566877 1.0257317 1.6379809
0.16444221 1.0128326 0.84922171
0.18132368 0.97170812 0.81876034
0.20093484 0.95185733 0.80651623
0.2219924 0.94129515 0.8025462
0.2446578 0.93791348 0.80515569
0.26966962 0.94224942 0.81497878
0.29912588 0.95902658 0.83631283
1.0829308 1.1051577 1.3336556
1.0833206 1.054477 1.3060926
1.101135 1.0222713 1.3011481
1.1308911 1.0011615 1.311147
1.17893 0.99500406 1.3425108
0.16425754 1.0474913 1.0147958
0.17874666 0.98927081 0.96265805
0.19792537 0.96652937 0.94534272
0.21856068 0.9540565 0.93847644
0.24066728 0.94880956 0.93924743
0.26475543 0.95068121 0.94768697
0.2922703 0.96245795 0.96677458
0.33300501 1.0115907 1.0245427
1.0869156 1.0983194 1.5332874
1.0930841 1.0549524 1.5106169
1.1129496 1.0258501 1.5084443
1.1442416 1.0071532 1.5224899
1.1958182 1.0048697 1.5636592
0.17284857 0.9943735 0.90774369
0.19129826 0.96701258 0.88673496
0.21138455 0.95207852 0.87751406
0.23285489 0.94481134 0.87582934
0.25608209 0.94442773 0.88107276
0.28208143 0.95253509 0.89486063
0.31458151 0.97863293 0.92638403
1.0953318 1.1329031 1.4494505
1.0836549 1.0712808 1.4037064
1.0965747 1.0361457 1.3919134
1.1205863 1.0119946 1.3952634
1.1570784 0.99858707 1.4146204
0.17346434 0.97254515 0.70979518
0.19214718 0.94807506 0.69503498
0.21234749 0.93472648 0.68873245
0.23399532 0.92882949 0.68828559
0.25755593 0.93004024 0.69355661
0.28435603 0.94076437 0.70647365
0.32099155 0.97894949 0.74073303
1.0746471 1.0912806 1.1165661
1.0761871 1.0442828 1.0943863
1.0931376 1.0135686 1.0891316
1.1209548 0.99306309 1.0953728
1.1644467 0.9854629 1.1170512
2.0456049 1.1176169 1.7264248
2.0604644 1.0667661 1.7207742
2.1066692 1.0318186 1.7421334
0.16961199 0.96025127 0.52838737
0.18797418 0.93435198 0.51648605
0.20796603 0.92034608 0.51138937
0.2294071 0.91405058 0.51085073
0.25275886 0.9149527 0.51465726
0.27931899 0.9253242 0.52418941
0.31517428 0.96154833 0.54895115
1.0632453 1.0687151 0.82969624
1.0684377 1.0256336 0.81596059
1.0874187 0.99688959 0.81362522
1.117707 0.97844404 0.82019269
1.1674716 0.97570789 0.84102833
2.0487959 1.1569827 1.3130561
2.0346756 1.089064 1.2895246
2.0589466 1.0429372 1.2912335
2.123975 1.0163168 1.3189666
3.807076 -0.58120453 2.2286839
3.8077726 -0.66661733 2.2392361
3.8085408 -0.75203931 2.2509065
3.8093913 -0.83894312 2.2637823
3.8103113 -0.92603612 2.2778125
3.8113043 -1.0141097 2.2929256
3.8123724 -1.1032686 2.3093412
3.8135138 -1.193621 2.3270059
3.814728 -1.2852803 2.3459616
3.8160155 -1.3783659 2.3663504
3.8173621 -1.472232 2.3878644
3.8186944 -1.5684969 2.4110129
3.820076 -1.6657752 2.4354668
0.16879222 0.94730681 0.38771048
0.1871665 0.92225951 0.37931523
0.20713939 0.90879029 0.37585416
0.22859749 0.90301085 0.37578171
0.25206712 0.9045704 0.3789942
0.27894923 0.91611773 0.38671938
0.31817231 0.96223319 0.40951058
1.0555974 1.0471565 0.61287951
1.0650182 1.0085469 0.60537004
1.0868298 0.98243958 0.60546815
1.1209234 0.9670431 0.61266494
1.1863863 0.97662592 0.63678646
2.0275662 1.1203851 0.97097164
2.0314276 1.0626819 0.96235293
2.0673103 1.0220428 0.96946502
3.0234537 1.16629 1.3703507
3.0223618 1.0878788 1.3603181
3.0941145 1.0351561 1.3837168
5.1461 -0.64098066 2.2577848
3.8385437 -0.56477326 1.6909621
3.7990756 -0.64461184 1.6811761
3.7998729 -0.7310524 1.6899246
3.8007553 -0.81828117 1.6996075
3.8017197 -0.90639859 1.7100844
3.8027682 -0.99550968 1.7215426
3.803899 -1.0857228 1.7339276
3.8051021 -1.1764206 1.7471703
3.806397 -1.2691718 1.7615765
3.8077602 -1.3626258 1.7768079
3.8092034 -1.4576412 1.7931703
3.8107247 -1.5543522 1.8106219
3.8123236 -1.6529006 1.8292083
3.8139992 -1.7534372 1.8489798
3.8157506 -1.856122 1.8699911
3.8175623 -1.9602764 1.8921248
-5.8649769 -1.9532923 2.1437445
-5.863555 -1.8016248 2.1186073
-5.8622227 -1.651109 2.0950391
-5.860991 -1.5026662 2.072984
-5.8598604 -1.3560874 2.0523839
-5.8588324 -1.2111732 2.0333033
-5.8579078 -1.0677311 2.0156922
-5.8570867 -0.92557567 1.9993904
-5.8563643 -0.7834866 1.9843116
-5.8557487 -0.6423431 1.9706017
-5.8552423 -0.5030008 1.9581441
-5.8548398 -0.36322603 1.9469566
-5.8545437 -0.22286227 1.9370403
-5.8543077 0.19523029 1.9144332
-5.8544474 0.33551496 1.9093076
-5.8546972 0.47620037 1.9054154
-5.8550572 0.61745775 1.9027535
-5.8555255 0.75946081 1.9012084
-5.8561039 0.9023869 1.9008977
-5.856791 1.0464176 1.9018292
-5.8575945 1.1928058 1.9040841
-5.8585076 1.3407013 1.9076254
-5.8595214 1.4892175 1.9122692
-5.860652 1.6407347 1.9183208
-5.8618908 1.7943975 1.9257299
-5.8632374 1.9504395 1.9345301
0.1566235 0.99123311 0.28880063
0.1706212 0.93377173 0.27333573
0.18925111 0.91137552 0.26820916
0.20940518 0.89943844 0.26630825
0.23111355 0.8950029 0.26676822
0.25503975 0.89817923 0.26968908
0.28292149 0.91267461 0.27623048
1.060203 1.0838916 0.45055741
1.0519524 1.0262347 0.43746829
1.065997 0.99232048 0.43427715
1.0916438 0.9696157 0.43615758
1.1319147 0.95905083 0.4439666
2.0184159 1.0873504 0.69748425
2.0367832 1.03739 0.6966877
2.0910077 1.0050309 0.70845401
3.0074952 1.1190749 0.98714042
3.0381269 1.0519865 0.99081516
5.1400547 -0.61291444 1.6467474
5.1407051 -0.7288847 1.6537229
3.7930722 -0.62453872 1.2258619
3.7938881 -0.71206313 1.2323707
3.7947879 -0.79968727 1.2394602
3.7957861 -0.88889581 1.2473124
3.7968657 -0.97840208 1.2557691
3.798034 -1.0690099 1.2648982
3.7992902 -1.1608346 1.2747214
3.8006337 -1.2539965 1.2852628
3.8020647 -1.3486226 1.2966266
3.8035698 -1.4440811 1.308674
3.805171 -1.542026 1.3215324
3.8068442 -1.6410617 1.3352047
3.8086143 -1.7429157 1.3498533
3.8104527 -1.8461488 1.3653004
3.8123713 -1.9517287 1.3816128
-5.8590117 -1.9127568 1.4223508
-5.8575978 -1.7618219 1.403523
-5.8562942 -1.6141919 1.3858221
-5.8550758 -1.4663486 1.3691074
-5.8539696 -1.3213964 1.3534316
-5.8529673 -1.1780392 1.338688
-5.8520637 -1.0350364 1.324909
-5.8512731 -0.89432544 1.312152
-5.8505831 -0.75362885 1.3002005
-5.8500009 -0.61382759 1.2890704
-5.8495278 -0.47475225 1.2789532
-5.8491602 -0.33521199 1.2694914
-5.8489056 -0.19709408 1.2610199
-5.8487988 0.21957679 1.2402332
-5.8489852 0.35876393 1.2348911
-5.8492827 0.49837536 1.2303632
-5.8496914 0.63857901 1.2266448
-5.850215 0.78058535 1.2237623
-5.8508449 0.92249614 1.2215536
-5.8515911 1.0665797 1.220192
-5.8524489 1.2119839 1.2196523
-5.8534179 1.3589026 1.2199414
-5.8544974 1.5075369 1.2210686
-5.8556952 1.6592026 1.2229979
-5.8569942 1.8119224 1.2258457
-5.8584127 1.9681596 1.2296511
0.15652996 0.96901685 0.17291087
0.17221303 0.92377853 0.16571024
0.19104981 0.90323621 0.16300464
0.21138255 0.89247155 0.16213325
0.23335858 0.88913065 0.16271621
0.2577216 0.89371693 0.16487838
0.28670222 0.9111883 0.16958462
1.0491337 1.0560412 0.27613598
1.051194 1.0092568 0.27106076
1.0690955 0.97902781 0.27035043
1.0988098 0.95960033 0.27283013
1.1478852 0.95573723 0.28010094
2.0212338 1.1220951 0.44326061
2.0178516 1.0594406 0.43821883
2.0496311 1.0159303 0.44106016
3.0145724 1.1596617 0.62964898
3.009943 1.0785455 0.62497646
3.081147 1.0242444 0.63637465
9.9236755 1.832975 2.0087965
9.9233637 1.5982597 2.0057011
9.923151 1.3655845 2.0037107
9.9230385 1.1346577 2.0026288
9.9230251 0.90521395 2.0026264
9.9231119 0.67699444 2.0035143
9.9232988 0.44972926 2.0054679
9.9235868 0.22317022 2.0083039
9.9244642 -0.22868371 2.0169847
9.9250536 -0.45416576 2.0228326
9.9257441 -0.68015027 2.0295765
9.9265366 -0.90687943 2.0374103
9.9274302 -1.1345983 2.0459862
9.9284258 -1.363556 2.0556855
9.9295149 -1.5922282 2.0662873
9.9307146 -1.8244188 2.0781081
5.163919 -1.5649816 1.1185077
5.1248498 -1.6800106 1.1193308
5.0843387 -1.7934711 1.1201336
5.0408826 -1.9068019 1.1209134
-5.8559303 -1.9639139 0.7196576
-5.8544888 -1.8133868 0.70566922
-5.8531494 -1.6651047 0.69232017
-5.8519039 -1.5177647 0.67954618
-5.8507643 -1.3722844 0.66736686
-5.8497376 -1.2295345 0.65575755
-5.8488097 -1.0871807 0.64467084
-5.8479886 -0.94612008 0.63409996
-5.847271 -0.80513567 0.62400687
-5.8466668 -0.66614354 0.61441499
-5.8461676 -0.52689934 0.60526609
-5.8457818 -0.38930118 0.59658545
-5.8455029 -0.25113159 0.58832896
-5.8453355 -0.11325675 0.5805012
-5.8453336 0.16327496 0.56608969
-5.8455 0.30123472 0.55947024
-5.8457794 0.44057244 0.55325788
-5.8461719 0.58043414 0.54741949
-5.8466721 0.71995282 0.54194468
-5.8472929 0.86241031 0.53687239
-5.848021 1.0048739 0.53215998
-5.8488607 1.148561 0.52780378
-5.8498111 1.2936589 0.52382028
-5.8508801 1.4414459 0.52021891
-5.8520608 1.5910666 0.51697868
-5.8533521 1.7427355 0.51410925
-5.854753 1.8966776 0.51161081
0.16439965 0.93340462 0.05546312
0.18244314 0.90636826 0.054299992
0.20220682 0.89203423 0.053931024
0.22351331 0.88572073 0.054088764
0.24684365 0.88690281 0.054754153
0.27358031 0.8980915 0.056102771
0.31191093 0.94147766 0.059563104
1.0520869 1.0690801 0.1024003
1.0467321 1.0139998 0.10027664
1.0620663 0.98080188 0.10025937
1.0893955 0.95894551 0.10145125
1.1332885 0.95060498 0.10422349
2.0224764 1.1262971 0.1738257
2.0137784 1.059904 0.17222336
2.0432885 1.0146084 0.1740047
3.0129261 1.1571573 0.25384516
3.0067132 1.0744282 0.25301513
3.0789077 1.0194439 0.2589266
9.9204788 1.7996372 0.83999687
9.9201555 1.5617931 0.8423261
9.9199362 1.3259811 0.84503561
9.9198217 1.0918815 0.84814346
9.9198122 0.859236 0.85165155
9.9199076 0.62775797 0.85552758
9.9201078 0.3971841 0.85977554
9.9204149 0.16728152 0.86441785
9.9213448 -0.29099244 0.87485504
9.9219732 -0.52172506 0.88065344
9.9227037 -0.75131696 0.88683468
9.9235411 -0.98175567 0.89341462
9.9244862 -1.2132992 0.90040541
9.9255295 -1.4444399 0.90777868
9.9266872 -1.6789736 0.91561007
9.9279528 -1.9154167 0.92385978
