# .PCD v0.7 - Point Cloud Data file format
VERSION 0.7
FIELDS x y z
SIZE 4 4 4
TYPE F F F
COUNT 1 1 1
WIDTH 1369
HEIGHT 1
VIEWPOINT 0 0 0 1 0 0 0
POINTS 1369
DATA ascii
-5.8757386 3.5739098 1.1196437
-5.8782597 3.7737758 1.1316575
-5.8808608 3.9786491 1.1447577
-5.8835783 4.1920691 1.15926
-5.7483635 4.3097215 1.1475849
-5.4635057 4.3055348 1.1061214
-5.1939855 4.3014212 1.0676647
-4.9401217 4.2974105 1.0321947
-4.7003365 4.2935019 0.99939895
-4.4732523 4.2896948 0.96903765
-4.2576575 4.2859898 0.94088
-4.052484 4.2823863 0.91475445
-3.8554091 4.278861 0.89032382
-3.6684008 4.2754641 0.8677488
-3.4892662 4.2721701 0.84673911
-3.3161194 4.2689581 0.82705915
-3.1508238 4.2658744 0.80885339
-2.99157 4.2628965 0.79188234
-2.8367755 4.260005 0.7759769
-2.6881981 4.2572422 0.76126385
-2.5432827 4.2545695 0.74747431
-2.4037211 4.2520251 0.73472381
-2.2671556 4.2495747 0.72280782
-2.135217 4.2472529 0.71180409
-2.0057092 4.245028 0.70154852
-1.8802087 4.2429323 0.69210851
-1.7566535 4.2409368 0.68334711
-1.6357161 4.2390575 0.67527425
-1.5180101 4.2373075 0.66791129
-1.4016316 4.2356625 0.66113961
-1.2880466 4.2341466 0.65501845
-1.1754335 4.2327385 0.64944166
-1.0652248 4.2314591 0.64446706
-0.95566493 4.2302904 0.64001471
-0.84815848 4.2292504 0.63611776
-0.74145979 4.2283268 0.63272548
-0.6357308 4.2275248 0.6298371
-0.53090191 4.2268438 0.62745202
-0.42675671 4.226285 0.62555265
-0.32315812 4.2258472 0.62412512
-0.22004566 4.2255316 0.62318027
-0.11728633 4.2253375 0.6226989
-0.014675273 4.2252655 0.62267834
0.087917507 4.2253151 0.62312567
0.190548 4.2254863 0.62404138
0.29334596 4.2257781 0.62541211
0.39644167 4.226191 0.62724841
0.50004143 4.2267246 0.62956375
0.60420465 4.2273784 0.63234806
0.15952313 0.95113099 0.14298187
0.17654914 0.91628993 0.13852862
0.19578677 0.89863735 0.13673082
0.21650046 0.88980776 0.13635261
0.23898712 0.88831413 0.13719282
0.26420093 0.89536947 0.13946785
0.29544944 0.91900474 0.14448297
1.4755949 4.236855 0.67279559
1.5915655 4.2385583 0.680327
1.7097802 4.2403755 0.68847036
1.8302726 4.2423024 0.69725943
1.9534353 4.2443409 0.70671827
2.0793216 4.2464871 0.71686834
2.2082686 4.2487411 0.72774279
2.3405428 4.2511024 0.7393986
2.4764316 4.2535691 0.75186265
2.6162453 4.2561407 0.76519209
2.7602139 4.2588139 0.7794134
2.9089134 4.261591 0.79461193
3.0625253 4.2644672 0.81083381
3.2215919 4.2674437 0.82815087
3.3864691 4.2705164 0.84663039
3.5579247 4.2736897 0.86638433
3.736289 4.2769575 0.88748598
3.9223287 4.2803206 0.9100365
4.1166143 4.2837768 0.93416274
1.0464264 1.0384574 0.23253241
1.0545282 0.99808979 0.22974326
1.0759037 0.97109669 0.23005918
1.1098598 0.9551357 0.23317711
1.1751535 0.9639774 0.24282755
5.5098433 4.3064651 1.1208583
5.7912951 4.3105693 1.1609142
6.0912595 4.3147678 1.2042733
6.4117141 4.3190594 1.2513175
6.755187 4.3234458 1.3024483
7.1252065 4.3279362 1.3582908
7.5244589 4.3325243 1.4193163
2.0138626 1.0975833 0.37614906
2.0239275 1.0424359 0.37459651
2.0675471 1.0045267 0.37946039
9.5162048 4.3520379 1.7330415
9.930748 4.2647386 1.7957454
9.9295053 3.9930446 1.7839639
3.0028172 1.1271298 0.53634697
3.0227978 1.055194 0.53709269
9.9263287 3.2086041 1.7555128
9.9254589 2.9560785 1.7481992
9.9246855 2.7074547 1.7418969
9.9240084 2.4620106 1.7365811
9.9234304 2.2199681 1.7322522
9.9229498 1.9804598 1.7288316
9.9225693 1.7436711 1.7263378
9.9222889 1.5090024 1.7247276
9.9221077 1.2762442 1.7239915
9.9220285 1.0451409 1.7241206
9.9220505 0.81540978 1.7251073
9.9221735 0.58680946 1.7269293
9.9223986 0.35906911 1.7295837
9.9227257 0.13193606 1.7330525
9.9231548 -0.095258377 1.7373559
9.9236879 -0.32226712 1.7425003
9.9243183 -0.54790568 1.7484404
9.9250565 -0.77589017 1.7552334
9.9258919 -1.0029849 1.7628857
9.9268303 -1.2311741 1.7713403
9.9278708 -1.4607092 1.7805963
9.9290142 -1.6918472 1.790854
9.9302597 -1.9248515 1.8017725
9.9316082 -2.1599941 1.8137395
9.9330606 -2.3975558 1.826784
9.9346027 -2.6359682 1.8404806
9.9362469 -2.877346 1.8553007
9.9380054 -3.123909 1.8710122
9.9398527 -3.3721907 1.8878262
9.9418001 -3.6244156 1.9056934
9.9438496 -3.880944 1.9246589
9.945982 -4.1401124 1.9446274
9.9482307 -4.4063721 1.9659306
9.9505816 -4.6781464 1.9884928
9.9530125 -4.9537163 2.0121992
9.9555426 -5.2356462 2.0372725
9.9581718 -5.5244498 2.0639927
9.9609213 -5.8230252 2.0922506
9.963748 -6.1273422 2.1217046
9.9666748 -6.440331 2.1530752
9.969676 -6.7601333 2.1859963
6.9002547 -4.9073815 1.5367926
6.57967 -4.904335 1.4892794
6.849669 -5.3457747 1.5766732
6.8524394 -5.5986776 1.6052264
6.8552632 -5.8590879 1.6352638
5.4718952 -4.8924389 1.3303559
5.2305951 -4.8895698 1.2968217
5.0006437 -4.886744 1.2654762
4.781064 -4.8839664 1.2358963
4.5709805 -4.8812399 1.2080607
4.3696084 -4.8785663 1.1818353
4.1762428 -4.8759494 1.1569841
3.9902451 -4.8733912 1.1335188
3.811038 -4.870893 1.1114528
3.6394372 -4.8684783 1.0905104
3.4722431 -4.8661084 1.0706429
3.3104057 -4.8638067 1.0517168
3.1535254 -4.8615742 1.0337751
3.0024161 -4.8594289 1.0168701
2.8543444 -4.8573394 1.0006118
2.711334 -4.85534 0.98527354
2.5708277 -4.8534002 0.97060382
2.4347742 -4.851552 0.95671362
2.3007648 -4.8497677 0.94338578
2.1706803 -4.8480759 0.93077242
2.0782421 -4.9318905 0.93487102
2.0822837 -5.2619309 0.98529571
2.0863652 -5.631115 1.0420272
2.0905187 -6.0507159 1.1069002
2.0946777 -6.524157 1.1804358
2.0989079 -7.0721946 1.2659975
2.103143 -7.7036414 1.3649838
2.1074164 -8.446105 1.4818368
2.1117644 -9.340229 1.6231289
0 -0 0
0 -0 0
0 -0 0
0 -0 0
0 -0 0
0 -0 0
0 -0 0
0 -0 0
0 -0 0
0 -0 0
-0 -0 0
-0 -0 0
-0 -0 0
-0 -0 0
-0 -0 0
-0 -0 0
-0 -0 0
-0 -0 0
-0 -0 0
-0 -0 0
-0 -0 0
-0 -0 0
-0 -0 0
-0 -0 0
-0 -0 0
-5.9753294 -16.170759 2.4747505
-5.9712105 -15.112372 2.3126152
-5.967124 -14.167531 2.1687264
-5.9630718 -13.31814 2.0402248
-5.9590569 -12.549745 1.9247779
-5.9550815 -11.850665 1.820477
-5.951117 -11.206575 1.7252324
-5.9472275 -10.619538 1.6390038
-5.9433541 -10.073724 1.5596012
-5.9395294 -9.5682898 1.4866954
-5.9357553 -9.0984869 1.4195608
-5.9320345 -8.6602755 1.3575436
-5.9283686 -8.2501984 1.3000484
-5.9247599 -7.8652773 1.2466495
-5.9212093 -7.5029349 1.1969119
-5.9176936 -7.158349 1.1502416
-5.9142413 -6.8324046 1.1065923
-5.9108801 -6.5256553 1.0659063
-5.9075599 -6.2318006 1.0275115
-5.9043088 -5.9519029 0.99139792
-5.9011283 -5.6847367 0.95738328
-5.8979974 -5.4272876 0.92515308
-5.8949647 -5.1824999 0.89485097
-5.8919854 -4.9457154 0.866041
-5.8891063 -4.7197514 0.83889312
-5.8862853 -4.5004048 0.8130393
-5.8835464 -4.2887831 0.7884903
-5.8808904 -4.0842814 0.76516265
-5.8783002 -3.8848631 0.74289298
-5.8758159 -3.6930416 0.72177154
-5.8734016 -3.5054195 0.70156711
-5.8710942 -3.3244112 0.68238074
-5.8688607 -3.1468556 0.6639936
-5.8667202 -2.9737825 0.64644665
-5.8646584 -2.8035834 0.62960935
-5.8627076 -2.6384957 0.61356866
-5.8608527 -2.4769266 0.59822035
-5.8590822 -2.3174093 0.58348089
-5.8574119 -2.1609132 0.56936061
-5.8558416 -2.0071867 0.55583382
-5.8543735 -1.8559921 0.54287726
-5.8530073 -1.7071044 0.53043759
-5.8517447 -1.5603102 0.51851749
-5.8505774 -1.4143229 0.50704604
-5.8495164 -1.2700546 0.49604627
-5.8485622 -1.1273142 0.48548314
-5.8477154 -0.98591787 0.47534451
-5.8469768 -0.84568745 0.46560904
-5.8463459 -0.70645028 0.45626727
-5.8458238 -0.56803799 0.44729021
-5.845408 -0.42925993 0.43866506
-5.8451028 -0.29098645 0.43039554
-5.8449092 -0.15305433 0.42245591
-5.8448262 -0.015301755 0.41484207
-5.8448548 0.12243226 0.40754059
-5.8449945 0.26030862 0.40053898
-5.8452482 0.39951399 0.39384073
-5.8456111 0.53816509 0.38742694
-5.8460889 0.67848361 0.38129887
-5.8466787 0.81961602 0.3754423
-5.8473806 0.96173751 0.3698591
-5.8481941 1.1050278 0.3645415
-5.8491187 1.2496719 0.35948253
-5.850162 1.3969426 0.35469112
-5.8513083 1.5448898 0.35014313
-5.8525734 1.6959 0.34585509
-5.8539491 1.8491133 0.34181821
-5.8554339 2.0047631 0.33803999
-5.8570275 2.1630945 0.33449626
-5.8587284 2.3243675 0.33121797
-5.8605504 2.4900706 0.32820755
-5.8624649 2.6580985 0.3254272
-5.8644991 2.8312225 0.32292959
-5.8666224 3.0072725 0.32066202
-5.868865 3.1891868 0.31869671
-5.8712096 3.3760953 0.31699821
-5.8736553 3.5684309 0.31558374
-5.8762012 3.7666636 0.31446028
-5.8788447 3.9713051 0.31362373
-5.8815851 4.1829157 0.31310868
-5.7458906 4.3000393 0.30560046
-5.4612947 4.296072 0.29045188
-5.1920195 4.29216 0.27648729
-4.9383836 4.2883339 0.2636176
-4.70049 4.2846208 0.2518177
-4.4735212 4.2809687 0.2408651
-4.25804 4.2774062 0.2307418
-4.0529776 4.2739339 0.22137395
-3.857388 4.2705541 0.21270654
-3.670429 4.2672672 0.20466167
-3.4913485 4.2640758 0.1971986
-3.3182602 4.2609587 0.19025454
-3.1530263 4.2579613 0.18383506
-2.9938383 4.2550635 0.17787483
-2.8391135 4.2522459 0.17232063
-2.690609 4.2495508 0.16719566
-2.5457704 4.2469411 0.16242442
-2.4053001 4.2444367 0.15801251
-2.2698066 4.2420564 0.15393634
-2.1370184 4.2397671 0.1501707
-2.0085373 4.2376022 0.14670195
-1.8822384 4.2355323 0.14350457
-1.7588 4.2335739 0.14056998
-1.6379815 4.2317286 0.13789342
-1.5195576 4.2299972 0.13544756
-1.40414 4.2283912 0.13324603
-1.28987 4.2268891 0.13125488
-1.1773971 4.2255034 0.12947485
-1.0665426 4.2242346 0.12789871
-0.95713603 4.2230835 0.1265201
-0.84901458 4.2220511 0.12533346
-0.74255419 4.2211418 0.12433677
-0.63661015 4.2203479 0.12351283
-0.5315724 4.2196741 0.12286878
-0.42722344 4.21912 0.12239406
-0.32342517 4.2186861 0.12208658
-0.22004198 4.2183728 0.12195221
-0.1169403 4.2181797 0.12198266
-0.014061447 4.2181077 0.12217756
0.0887997 4.2181563 0.122537
0.19177437 4.2183256 0.12305438
0.29492033 4.2186151 0.12373821
0.39844379 4.2190247 0.12459044
0.50240439 4.2195535 0.12560581
0.60701269 4.220202 0.12678002
0.15964989 0.94591475 0.028714133
0.17684978 0.91202265 0.02800733
0.19620097 0.89475566 0.027829951
0.21704611 0.88625723 0.027952719
0.23971443 0.88516486 0.02834041
0.26525009 0.89289349 0.02905423
0.29739025 0.91876382 0.030415691
1.4833442 4.2296124 0.14261223
1.6002272 4.2313046 0.14546154
1.7193171 4.2331076 0.148526
1.8408241 4.2350206 0.15181643
1.9650626 4.2370434 0.15534604
2.0920925 4.2391725 0.15912545
2.222353 4.2414088 0.16315515
2.3560297 4.2437501 0.16746607
2.4934194 4.2461944 0.17205855
2.6348441 4.2487402 0.17695989
2.780652 4.2513871 0.182191
2.9312239 4.2541323 0.18775693
3.0869741 4.2569747 0.19369148
3.2484767 4.2599149 0.20002519
3.4159975 4.2629471 0.2067645
3.5902033 4.2660718 0.2139646
3.7717035 4.2692876 0.22165373
3.9611759 4.2725921 0.22986375
4.1593752 4.2759843 0.23864102
1.0449424 1.0239623 0.05934887
1.0568901 0.9871881 0.059491999
1.0813218 0.96264428 0.060389582
1.1200453 0.95010281 0.062123396
5.3144536 4.2941995 0.29303429
5.5868192 4.2980824 0.30652615
5.8767037 4.302042 0.32110628
6.1859493 4.3060751 0.3368808
6.5174174 4.3101864 0.35404062
6.8734293 4.3143692 0.37271407
7.2575159 4.3186259 0.39309716
2.0392556 1.1488271 0.11040814
2.0112572 1.0710709 0.10891435
2.0339561 1.0220839 0.1102315
2.0997982 0.99364638 0.1139567
9.7638407 4.3410172 0.53092068
9.9278431 4.1358156 0.54116696
3.0322261 1.1800822 0.16577946
3.0017366 1.0874431 0.16468203
3.0540128 1.0257124 0.16820845
9.9234304 3.0750418 0.54895306
9.9225731 2.8209031 0.55154938
9.9218168 2.5705755 0.55440617
9.9211617 2.3235168 0.55750394
9.9206095 2.079391 0.56084496
9.9201603 1.8380558 0.56441629
9.919816 1.598985 0.56823659
9.9195757 1.3620055 0.57229346
9.9194412 1.126793 0.57657373
9.9194126 0.89308494 0.58110017
9.9194899 0.66059077 0.58587825
9.9196739 0.42904341 0.5908795
9.9199648 0.1981979 0.59612828
9.9203644 -0.032897294 0.60161477
9.9208698 -0.26325256 0.60734773
9.9214792 -0.49218458 0.61333025
9.9222002 -0.72341776 0.61958128
9.9230299 -0.95547915 0.62607366
9.9239616 -1.1868743 0.63284028
9.9250011 -1.4196068 0.63988394
9.926157 -1.6557266 0.64721942
9.927412 -1.8919594 0.65482438
9.9287748 -2.1303575 0.66272974
9.930234 -2.3693788 0.67092216
9.9318123 -2.6129744 0.67945409
9.9334984 -2.8596458 0.68833536
9.9352779 -3.1078153 0.69750911
9.9371634 -3.3596785 0.7070446
9.9391699 -3.6175621 0.71700901
9.941268 -3.8779376 0.72729772
9.9434719 -4.1431408 0.73801398
9.9457817 -4.4135952 0.74916416
9.9481773 -4.6876206 0.7606917
9.9506969 -4.9699111 0.77274817
9.9533215 -5.2588964 0.78532439
9.9560299 -5.5528407 0.79835474
9.9588413 -5.854506 0.81192297
9.9617796 -6.1669412 0.82617778
9.9647989 -6.4860625 0.84096372
9.9679222 -6.8149624 0.85643137
6.8493066 -4.9144788 0.59939069
6.5266533 -4.911046 0.58204782
6.8481507 -5.4005852 0.62268192
6.8510013 -5.657578 0.63539314
5.6679106 -4.9010472 0.53656799
5.4129462 -4.8978405 0.5232904
5.1687346 -4.8946691 0.51067537
4.9379044 -4.8915834 0.49885747
4.7158628 -4.8885388 0.48759082
4.5051298 -4.8855834 0.47698647
4.3031611 -4.8826957 0.46692005
4.1092391 -4.8798785 0.45735005
3.9227173 -4.8771329 0.44822806
3.7430098 -4.8744612 0.43952087
3.5695851 -4.8718653 0.43119833
3.4019592 -4.8693461 0.42323309
3.2396903 -4.8669062 0.41560015
3.0835748 -4.8645644 0.40832338
2.930804 -4.8622861 0.40127546
2.7822738 -4.8600907 0.39450705
2.6387746 -4.857996 0.38801876
2.4977729 -4.8559704 0.38171574
2.3611879 -4.8540473 0.37567595
2.2266328 -4.8521967 0.36979774
2.0959618 -4.8504486 0.3641322
2.0797567 -5.1269565 0.37919173
2.0839443 -5.486022 0.39984763
2.0882056 -5.8936415 0.42336848
2.0924735 -6.3530812 0.44991016
2.0967803 -6.8797264 0.48036292
2.1011598 -7.4951968 0.5160532
2.1055446 -8.2124548 0.55765879
2.1099696 -9.0670538 0.60727692
3.6926281 -17.660215 1.1667327
3.2825618 -17.65951 1.1509734
2.8759346 -17.658901 1.1354856
2.4722965 -17.658386 1.1202763
2.0680854 -17.657965 1.1052992
1.6691388 -17.657644 1.0905505
1.2718951 -17.657419 1.0760424
0.87285334 -17.657291 1.0617126
0.47779149 -17.657263 1.0475315
0.080126986 -17.657333 1.0335251
-0.31437838 -17.657501 1.0196781
-0.70920926 -17.657768 1.0059028
-1.1078616 -17.658136 0.99228185
-1.5045626 -17.658602 0.97868347
-1.9059267 -17.659168 0.96520513
-2.3061497 -17.659832 0.95176148
-2.7119157 -17.660599 0.93834019
-3.1205502 -17.661467 0.9249633
-3.5293009 -17.662426 0.91157669
-3.9450216 -17.663492 0.89815563
-4.3650174 -17.664658 0.8847428
-4.7897935 -17.665922 0.87125099
-5.2198744 -17.667284 0.85771954
-5.6558104 -17.668747 0.84409136
-5.9787655 -17.324297 0.81408077
-5.9745531 -16.125362 0.74501562
-5.9703727 -15.064075 0.68393952
-5.9662266 -14.117162 0.62954688
-5.9620857 -13.260052 0.58050567
-5.9580159 -12.491241 0.53647006
-5.9539886 -11.792007 0.49645969
-5.9499741 -11.147994 0.45978007
-5.9460068 -10.556769 0.42615312
-5.9421186 -10.015631 0.39532068
-5.9382515 -9.5105743 0.36669743
-5.9344382 -9.0411949 0.34011564
-5.9306803 -8.6034336 0.31537285
-5.92698 -8.1938219 0.29224318
-5.9233394 -7.80937 0.27056608
-5.9197602 -7.4474931 0.25018597
-5.9162178 -7.1033859 0.23091795
-5.9127684 -6.7803221 0.21276389
-5.9093599 -6.4715753 0.19552398
-5.9060473 -6.1803255 0.17917122
-5.902781 -5.9007206 0.16359496
-5.8995881 -5.6338301 0.14871359
-5.8964705 -5.3785586 0.13450693
-5.8934307 -5.1339259 0.1208936
-5.8904691 -4.8990512 0.10782804
-5.8875661 -4.6714487 0.095251746
-5.8847675 -4.4538445 0.083150782
-5.8820319 -4.2422552 0.071463056
-5.8794022 -4.0392904 0.060172882
-5.8768396 -3.8413029 0.049233962
-5.8743663 -3.6493623 0.038623393
-5.8719831 -3.4630051 0.028316334
-5.8696918 -3.2818043 0.018286394
-5.8674769 -3.1040473 0.0085116895
-5.8653731 -2.9320402 -0.0010284084
-5.8633642 -2.7640913 -0.01035491
-5.8614378 -2.5986557 -0.019484906
-5.8596106 -2.4367211 -0.028435571
-5.857883 -2.2780061 -0.037224237
-5.856256 -2.1222475 -0.045864627
-5.8547306 -1.969197 -0.054373987
-5.8533077 -1.8186206 -0.062765516
-5.8519788 -1.6691887 -0.071047038
-5.8507643 -1.5229195 -0.079239897
-5.8496461 -1.3774089 -0.087349348
-5.8486352 -1.2335669 -0.09539023
-5.6686416 -1.0577857 -0.10020847
-5.3481684 -0.86908829 -0.10181397
-0.034560662 -0.0047895401 -0.0007047868
-0.022077655 -0.0025310456 -0.00048000229
-0.010860576 -0.00098838983 -0.00025075497
-0.00075532199 -5.0830524e-05 -1.8456476e-05
-0.03525677 -0.0015393437 -0.00090900995
-0.035114683 -0.0007110227 -0.00095276261
-0.035082363 0.00011633794 -0.00099937001
-0.035162278 0.00095146324 -0.0010495043
-0.035353288 0.0017909204 -0.0011035411
-0.035655402 0.0026496542 -0.0011620848
-0.036071837 0.0035432309 -0.0012258176
-0.036600552 0.0044745309 -0.0012951097
-0.037236191 0.0054454478 -0.0013703757
-0.037987649 0.006479701 -0.0014525981
-0.038856912 0.0075882152 -0.0015423824
-0.039830942 0.0087646889 -0.0016399029
-0.040914986 0.010026973 -0.0017458524
-0.042117551 0.011395738 -0.0018615264
-0.043420505 0.012861739 -0.0019866254
-0.04484209 0.014457677 -0.0021229242
-0.04637235 0.01618487 -0.0022706161
-0.048010383 0.01805548 -0.0024305026
-0.049755227 0.020082217 -0.0026034312
-0.051605847 0.022278396 -0.0027902024
-0.05356117 0.024658041 -0.0029918645
-0.055635374 0.027255489 -0.0032104903
-0.057797335 0.030048937 -0.0034449543
-0.060077179 0.033096012 -0.0036987434
-0.06244069 0.036370534 -0.0039705662
-0.064920813 0.039939549 -0.004264439
-0.067499295 0.043801066 -0.0045807124
-0.070174612 0.047977637 -0.0049208724
-0.07296554 0.05252767 -0.0052886624
-0.0758304 0.05741252 -0.0056818952
-0.0787872 0.06269262 -0.0061046346
-0.081856564 0.06844271 -0.0065621315
-0.084992625 0.074615292 -0.0070513249
-0.088238858 0.081338972 -0.0075808084
-0.091571011 0.088614605 -0.0081512686
-0.091220863 0.092632785 -0.0084172655
-0.08375787 0.089286707 -0.0080180475
-0.07686241 0.086026341 -0.0076394752
-0.070488982 0.082853571 -0.0072799902
-0.064555906 0.079748362 -0.0069359071
-0.059110802 0.076756939 -0.0066120834
-0.054076076 0.073858537 -0.0063049993
-0.049421161 0.071054794 -0.00601344
-0.045088377 0.068328202 -0.0057348222
-0.041113876 0.065719359 -0.0054730889
-0.037416428 0.063192189 -0.0052233124
-0.034003485 0.060767338 -0.0049872799
-0.030875945 0.058462474 -0.0047663189
-0.027969582 0.056245726 -0.0045563937
-0.02528977 0.054135382 -0.0043590255
-0.022819566 0.052132685 -0.0041738884
-0.020558616 0.050251953 -0.004001922
-0.018459376 0.048467197 -0.0038401945
-0.016524481 0.046793431 -0.0036899839
-0.014740289 0.045231599 -0.0035508843
-0.013093779 0.043782618 -0.0034227022
-0.011572483 0.042447377 -0.0033054193
-0.010164385 0.041226622 -0.0031987065
-0.0088489074 0.040113591 -0.003101794
-0.0076334327 0.039124757 -0.0030160253
-0.0064989505 0.038253549 -0.0029406014
-0.005430121 0.037496977 -0.002875091
-0.0044205654 0.036858566 -0.0028196806
-0.0034586091 0.036337785 -0.0027742011
-0.0025349106 0.035935439 -0.0027386234
-0.001639514 0.035651766 -0.0027128835
-0.00076317595 0.03548703 -0.0026969998
0.0001051561 0.035441078 -0.0026908435
0.00097463035 0.03551412 -0.0026944613
0.0018543956 0.035705909 -0.0027077512
0.0027555216 0.036016639 -0.0027307917
0.0036865941 0.036445681 -0.002763543
0.0046582124 0.036992967 -0.002806033
0.0056804782 0.037658203 -0.0028583533
0.0067628529 0.03844035 -0.0029203482
0.0079165036 0.039339434 -0.0029922423
0.0091521218 0.04035493 -0.0030741007
0.01048068 0.041486222 -0.0031659256
0.011912432 0.042731754 -0.0032678745
0.013459941 0.04409153 -0.003379971
0.015134064 0.045563698 -0.003502398
0.016948421 0.047148332 -0.0036353962
0.01891611 0.048844483 -0.0037790462
0.021049276 0.050649844 -0.0039334968
0.023361959 0.052563142 -0.0040990398
0.025870765 0.054584477 -0.0042758421
0.02858974 0.056711152 -0.0044643371
0.031537604 0.058943305 -0.0046647647
0.034730121 0.06127793 -0.0048774043
0.038186111 0.063713461 -0.0051027471
0.041928515 0.066250086 -0.0053412877
0.045973655 0.068882488 -0.0055932165
0.050354056 0.07161469 -0.0058595724
0.05508608 0.074439131 -0.0061407434
0.060204204 0.077357985 -0.0064374087
0.065731309 0.080365188 -0.0067503112
0.07170853 0.083463103 -0.0070806933
0.078168586 0.0866476 -0.0074292552
0.085157126 0.089919008 -0.0077974191
0.09270899 0.09327054 -0.0081862202
0.090893582 0.087130323 -0.0077462066
0.087592483 0.079996943 -0.0072101299
0.084379353 0.073406748 -0.0067135394
0.081258126 0.067320563 -0.0062536509
0.078225888 0.061690461 -0.0058266483
0.075288661 0.056489293 -0.0054309759
0.072443664 0.05167738 -0.0050634714
0.069696508 0.047232449 -0.0047227601
0.067044593 0.043121222 -0.0044063576
0.064493105 0.039325058 -0.0041130134
0.062039629 0.035815708 -0.0038407822
0.059688933 0.032577258 -0.0035886203
0.057440359 0.029587533 -0.0033550051
0.055294983 0.026828337 -0.0031386872
0.053253829 0.02428264 -0.0029385174
0.051317867 0.021934461 -0.0027535348
0.049487989 0.019768741 -0.002582747
0.04776625 0.01777265 -0.0024254031
0.046150908 0.015929785 -0.0022804763
0.044644989 0.014230005 -0.0021472301
0.043247946 0.012659695 -0.0020250094
0.041960336 0.01120714 -0.0019131079
0.040783472 0.0098620402 -0.0018108357
0.039716113 0.0086116008 -0.0017177032
0.038760141 0.0074471901 -0.0016329911
0.037915085 0.006357735 -0.0015563197
0.037181266 0.0053335279 -0.0014871029
0.036558792 0.0043648728 -0.0014249117
0.036047809 0.0034425005 -0.0013692813
0.035648268 0.0025571133 -0.0013197657
0.035360102 0.0016996429 -0.0012759444
0.03518321 0.00086114946 -0.0012375413
0.035117388 3.2774973e-05 -0.0012041127
0.035162069 -0.00079179893 -0.0011752837
0.035317861 -0.0016284828 -0.0011508057
0.035584707 -0.0024820841 -0.0011304219
0.035959199 -0.0033548253 -0.0011135818
0.036442779 -0.004261699 -0.0011002477
0.037035167 -0.0052115447 -0.0010900813
0.03773604 -0.0062133325 -0.0010828183
0.038545027 -0.0072761909 -0.0010782726
0.03946168 -0.0084094377 -0.0010762046
0.040485501 -0.0096226083 -0.0010763836
0.041607067 -0.01091541 -0.0010783088
0.042842697 -0.012317322 -0.0010824605
0.044173226 -0.013817654 -0.001087993
0.045606785 -0.015437044 -0.0010949972
0.0022526006 -0.00082121551 -5.2718275e-05
0.0066618361 -0.0026053814 -0.00015198621
0.011110045 -0.0046451543 -0.00024709318
0.015574859 -0.0069408892 -0.00033770569
0.020062434 -0.0095048975 -0.00042409304
0.024562052 -0.012337316 -0.00050617097
0.029020239 -0.015430335 -0.00058317161
0.033466347 -0.018795801 -0.00065579009
0.037864424 -0.022428652 -0.00072362641
0.042197596 -0.02632704 -0.00078664214
0.046448004 -0.030487431 -0.00084481208
0.050592903 -0.034901705 -0.00089807744
0.054614235 -0.039563172 -0.00094647252
0.05849126 -0.044461679 -0.00099002407
0.062200364 -0.049582839 -0.0010287572
0.065744385 -0.054912373 -0.0010629788
0.069051459 -0.060428701 -0.0010923055
0.07214988 -0.066113189 -0.0011173219
0.074989185 -0.071937174 -0.0011379173
0.077524327 -0.077876918 -0.0011540983
0.079785928 -0.08390069 -0.0011664571
4.4263339 -4.8730135 -0.063639805
4.2388654 -4.8865824 -0.060030311
4.044384 -4.8836117 -0.056518026
3.8573306 -4.880724 -0.053299289
3.6771114 -4.8779202 -0.050356731
3.5044925 -4.8752217 -0.04767793
3.3363316 -4.8725891 -0.045235328
3.1735313 -4.8700447 -0.043021712
3.0168686 -4.8676081 -0.041031089
2.8635597 -4.8652425 -0.039240539
2.7156034 -4.8629856 -0.037649833
2.5714996 -4.8608198 -0.03624548
2.4298902 -4.8587313 -0.035017315
2.292666 -4.8567524 -0.03396393
2.1584811 -4.8548675 -0.033076532
2.0776868 -4.9766264 -0.033168852
2.0819325 -5.3234024 -0.03486383
2.0862205 -5.7132211 -0.036930539
2.0905495 -6.1550307 -0.039446905
2.0949187 -6.6604433 -0.04251425
2.0006235 -6.9041786 -0.044091411
1.8278965 -6.8890915 -0.044210292
1.6550068 -6.8619351 -0.044442851
1.4827118 -6.8232126 -0.044784233
1.3116831 -6.7732668 -0.045231044
1.1426179 -6.7128048 -0.045776479
0.97611988 -6.6423559 -0.046415359
0.81275839 -6.5625644 -0.04714141
0.65417939 -6.4739904 -0.047949214
0.49856067 -6.3775039 -0.048830222
0.34746569 -6.2738171 -0.049777601
0.20123588 -6.163568 -0.050785094
0.060164977 -6.0475183 -0.051845334
-0.075511143 -5.9263506 -0.052951671
-0.20560692 -5.8007288 -0.054097634
-0.32999036 -5.6713996 -0.055276018
-0.44856954 -5.5389142 -0.056481425
-0.56130338 -5.4039464 -0.057707358
-0.66817665 -5.2669826 -0.058949035
-0.76922905 -5.1286607 -0.060200348
-0.86450833 -4.9893923 -0.061457247
-0.95410711 -4.8496819 -0.062714875
-0.0081425365 -0.036942139 -0.00050174439
-0.007522516 -0.030788532 -0.00043932101
-0.0066583441 -0.024797337 -0.00037183121
-0.0055627613 -0.018986251 -0.00029923455
-0.0042470307 -0.013364055 -0.00022142156
-0.0027276718 -0.0079487655 -0.00013847345
-0.0010106147 -0.0027408642 -5.0206658e-05
-0.019357111 -0.049040463 -0.00094466755
-0.02139472 -0.050771955 -0.0010286465
-0.023577819 -0.05258571 -0.0011204303
-0.025952589 -0.054508634 -0.0012217014
-0.02849598 -0.056510448 -0.001332228
-0.03126118 -0.058620837 -0.0014539181
-0.034244426 -0.060823698 -0.0015871791
-0.037461765 -0.063117892 -0.0017331783
-0.040902879 -0.065483719 -0.0018920605
-0.044638917 -0.067956261 -0.0020665957
-0.048664175 -0.070516407 -0.0022573313
-0.052999996 -0.073162839 -0.0024659033
-0.057706423 -0.075915299 -0.0026949062
-0.062737517 -0.07873074 -0.0029440392
-0.068154983 -0.081628181 -0.003216109
-0.073988847 -0.084606126 -0.0035134885
-0.080321804 -0.087686583 -0.0038400679
-0.087094598 -0.090821408 -0.0041954247
-0.093366623 -0.092976347 -0.0045331698
-0.090160593 -0.085738823 -0.004414598
-0.087031923 -0.079026513 -0.0042997459
-0.084005125 -0.072844543 -0.0041896654
-0.08103554 -0.067062259 -0.0040812893
-0.078126587 -0.061656389 -0.0039743809
-0.075323664 -0.056678049 -0.0038722972
-0.072606042 -0.052057527 -0.0037733503
-0.06997516 -0.047769621 -0.0036774292
-0.067413442 -0.043762077 -0.0035831956
-0.064942613 -0.04004677 -0.0034923984
-0.062581599 -0.036628369 -0.003406168
-0.060295768 -0.033436246 -0.0033219699
-0.058104657 -0.030479759 -0.0032413059
-0.05600946 -0.027742442 -0.0031643282
-0.054011311 -0.025208844 -0.0030911989
-0.052111257 -0.022864396 -0.0030218898
-0.050297081 -0.02067963 -0.0029557161
-0.04859703 -0.018674117 -0.0028949182
-0.046986233 -0.016805004 -0.002837606
-0.045478866 -0.015075929 -0.0027851893
-0.044085909 -0.013486829 -0.0027385224
-0.042786952 -0.0120027 -0.0026962608
-0.041593648 -0.010625284 -0.00265944
-0.04049886 -0.0093350094 -0.0026278924
-0.03951956 -0.008140957 -0.0026029821
-0.03864767 -0.0070234723 -0.0025844376
-0.037878241 -0.0059654443 -0.0025721553
-0.037223272 -0.0049732574 -0.0025672887
-0.036673132 -0.0040228385 -0.0025695299
-0.036233459 -0.0031126738 -0.0025795083
-0.035904523 -0.0022337569 -0.0025977669
-0.035686467 -0.0013771735 -0.0026246691
-0.035578843 -0.00052786153 -0.0026605548
-0.035583548 0.00031053292 -0.0027060616
-0.035699215 0.0011530782 -0.0027615693
-0.035927676 0.002014959 -0.0028277156
-0.036268469 0.0028989795 -0.0029050303
-0.036721352 0.0038142165 -0.0029940328
-0.037281688 0.0047626677 -0.0030950413
-0.037962273 0.0057751448 -0.0032098126
-0.038749464 0.0068395496 -0.0033377267
-0.039647229 0.0079726828 -0.0034800202
-0.040655002 0.0091843707 -0.0036373958
-0.041780651 0.010494574 -0.0038116153
-0.043016616 0.011905311 -0.0040027671
-0.044352058 0.01341602 -0.0042105331
-0.045805588 0.015060111 -0.0044383188
-0.047367007 0.01683869 -0.0046859793
-0.049035355 0.018764017 -0.0049545718
-0.05082291 0.020864721 -0.0052472618
-0.052702937 0.023124002 -0.0055618747
-0.054686721 0.025570592 -0.0059013171
-0.056788627 0.028239552 -0.0062696012
-0.058993388 0.031130007 -0.0066663153
-0.06128272 0.03423572 -0.0070905229
-0.063688487 0.037620269 -0.0075495634
-0.066192985 0.041281693 -0.0080429204
-0.068794779 0.045241304 -0.0085731214
-0.071492277 0.049522061 -0.0091424817
-0.074304357 0.054183669 -0.0097579407
-0.07718914 0.059186511 -0.010414947
-0.080164716 0.064592421 -0.011120794
-0.083251715 0.070477776 -0.011883928
-0.086427182 0.076841608 -0.012704452
-0.089665592 0.083673052 -0.013581637
-0.090420343 0.088577062 -0.014126977
-0.086752392 0.089209437 -0.013993134
-0.082378827 0.088929899 -0.013731365
-0.075620614 0.085714415 -0.013039076
-0.06937214 0.082586639 -0.012387495
-0.063593581 0.079548337 -0.011773598
-0.058211964 0.076580361 -0.011190708
-0.05327142 0.073726952 -0.010645937
-0.048702169 0.070968188 -0.01013276
-0.044447649 0.068286717 -0.009645435
-0.040543597 0.065722622 -0.0091905398
-0.036910236 0.06324029 -0.0087591289
-0.03355499 0.060860053 -0.0083537428
-0.030478867 0.058599293 -0.007976301
-0.027618699 0.056426626 -0.0076196892
-0.024979832 0.054360025 -0.0072861072
-0.022545608 0.05240066 -0.006974637
-0.020300372 0.050549738 -0.0066847624
-0.018229235 0.048808236 -0.0064155161
-0.016318152 0.047177263 -0.0061666048
-0.014553672 0.045657698 -0.0059372988
-0.012922964 0.044250425 -0.0057271258
-0.01141372 0.042956255 -0.0055356617
-0.010014093 0.041775934 -0.0053625274
-0.0087126382 0.040710155 -0.0052073877
-0.0074982676 0.039759528 -0.0050699464
-0.0063554663 0.038921259 -0.0049494351
-0.005281949 0.038202077 -0.0048465868
-0.0042633046 0.037599403 -0.0047606872
-0.0032901547 0.037114188 -0.0046917386
-0.0023531332 0.036746934 -0.004639647
-0.0014410017 0.036497325 -0.0046042381
-0.0005446155 0.036365777 -0.0045854235
0.00034579608 0.0363524 -0.0045832372
0.001239987 0.036457211 -0.0045976723
0.0021470669 0.036679897 -0.0046286508
0.0030781347 0.037020698 -0.0046763415
0.0040424354 0.037479296 -0.0047408086
0.0050492273 0.038054969 -0.0048220949
0.006110074 0.038748171 -0.0049203946
0.0072337734 0.039557587 -0.0050358786
0.0084315594 0.040483121 -0.0051686745
0.0097132642 0.041523531 -0.0053190575
0.01109177 0.042679667 -0.0054874639
0.0125765 0.043949198 -0.0056739547
0.014180193 0.045332216 -0.0058791023
0.015913777 0.046826769 -0.0061030495
0.017791066 0.048432939 -0.0063464013
0.019825371 0.050149873 -0.0066098636
0.02202896 0.05197515 -0.006893584
0.024417898 0.05390897 -0.007198602
0.027005682 0.055948641 -0.0075251427
0.029810335 0.058094397 -0.0078744404
0.032846987 0.060343333 -0.0082470691
0.03613608 0.062695622 -0.0086441357
0.039694823 0.065148115 -0.0090664858
0.043546803 0.067701086 -0.0095157614
0.047708746 0.070349097 -0.0099922065
0.052214172 0.073096275 -0.010498692
0.057079956 0.075934999 -0.011035606
0.062341686 0.078867488 -0.011605567
0.068027303 0.081889838 -0.012210111
0.074171193 0.085000075 -0.012851424
0.080816261 0.088198557 -0.013532745
0.08662492 0.090051204 -0.014033542
0.09029118 0.089419216 -0.014165821
0.090408564 0.085298069 -0.013749404
0.087134786 0.078310691 -0.012856718
0.083949097 0.071854018 -0.012027657
0.080850989 0.065881729 -0.011256682
0.077844411 0.060360558 -0.010539795
0.074933037 0.055259533 -0.0098734917
0.072114229 0.050539955 -0.0092534143
0.069391504 0.046176959 -0.008676338
0.066768169 0.042147133 -0.0081398804
0.064241804 0.038420517 -0.0076406323
0.061815616 0.034977868 -0.0071765608
0.059490804 0.031798497 -0.006745243
0.057268515 0.028863201 -0.0063445936
0.055151388 0.026155964 -0.0059731356
0.053137366 0.023656057 -0.0056285406
0.051230341 0.021351365 -0.0053096875
0.049428493 0.019223675 -0.0050147907
0.047735184 0.017261993 -0.0047425949
0.046149939 0.015451407 -0.0044919094
0.044672377 0.013778017 -0.0042612245
0.043305319 0.012232131 -0.0040498455
0.042049069 0.010801842 -0.0038566017
0.040902384 0.0094738938 -0.0036804683
0.039866623 0.0082385661 -0.0035205546
0.038942806 0.0070862356 -0.0033761403
0.038130194 0.0060054655 -0.0032463041
0.03742959 0.0049871258 -0.0031304117
0.036840972 0.0040214034 -0.003027661
0.036364403 0.0030987973 -0.0029374401
0.03599998 0.0022101782 -0.0028591808
0.035747573 0.0013462286 -0.0027922718
0.035607085 0.00049814582 -0.0027360828
0.035578299 -0.00034153764 -0.0026902573
0.035661701 -0.0011892515 -0.0026542253
0.035855725 -0.0020423138 -0.002627454
0.036160648 -0.0029157689 -0.002609605
0.03657629 -0.0038185078 -0.0026002026
0.037098061 -0.0047523715 -0.0025986214
0.03773373 -0.0057403767 -0.0026051698
0.038479317 -0.0067849415 -0.0026191266
0.039327595 -0.0078869853 -0.0026396778
0.040291026 -0.009072586 -0.0026676299
0.041354593 -0.01033386 -0.0027015307
0.042524569 -0.011689266 -0.0027416607
0.043800343 -0.013149066 -0.002787844
0.045181207 -0.014723867 -0.0028397611
0.046666451 -0.016424697 -0.0028973578
0.048242904 -0.018248722 -0.0029593948
0.049933631 -0.020235348 -0.0030276226
0.051712301 -0.022367196 -0.0030999146
0.053590301 -0.024671452 -0.0031771739
0.055581927 -0.027181206 -0.0032604516
0.057656199 -0.029873369 -0.003347229
0.059826601 -0.032781258 -0.0034387561
0.06209195 -0.035921086 -0.0035348476
0.064432882 -0.039283708 -0.003634298
0.066883735 -0.042938594 -0.0037397267
0.069425717 -0.046881143 -0.0038497832
0.07203728 -0.051099673 -0.0039630448
0.074756704 -0.055681352 -0.0040828814
0.077541515 -0.060582075 -0.0042058011
0.080410436 -0.06586206 -0.0043340493
0.083361894 -0.071550794 -0.0044674608
0.086394332 -0.077680662 -0.0046066418
0.089506127 -0.084287338 -0.0047516879
0.092695616 -0.091410294 -0.0049031582
0.088631973 -0.091525003 -0.0046746843
0.081749603 -0.088374317 -0.0043022512
0.075314596 -0.085277505 -0.0039593601
0.069386929 -0.082282968 -0.00364656
0.063841999 -0.079346702 -0.0033583245
0.058732938 -0.076514602 -0.0030953353
0.053988297 -0.073765658 -0.0028542047
0.049582496 -0.071101278 -0.0026329372
0.04549202 -0.068522878 -0.002430032
0.041695181 -0.066031784 -0.0022439768
0.038171899 -0.063629292 -0.0020733976
0.034903523 -0.061316662 -0.0019171686
0.031872667 -0.059095092 -0.0017740156
0.029063078 -0.056965742 -0.001643013
0.02645951 -0.054929726 -0.0015231974
0.024065316 -0.05300251 -0.0014140829
0.021830246 -0.051155552 -0.001314129
0.019775756 -0.049417898 -0.0012232466
0.017858153 -0.047763802 -0.0011400983
0.016095264 -0.0462193 -0.0010648331
0.014448937 -0.044761479 -0.00099609955
0.01293382 -0.043413308 -0.00093416689
0.01152685 -0.042163979 -0.0008780685
0.010208669 -0.041005708 -0.00082731951
0.0089899804 -0.039956715 -0.00078188221
0.0078512914 -0.039008334 -0.00074116234
0.0067837774 -0.038161058 -0.00070490013
0.0057713166 -0.037409991 -0.00067268021
0.0048208749 -0.036766931 -0.00064440741
7.9791993e-05 -0.00073809706 -1.2627699e-05
0.00028976926 -0.0034009351 -5.6880996e-05
0.00037266535 -0.0059732529 -9.7818869e-05
0.00033463299 -0.0084418617 -0.0001355823
0.00018267815 -0.010789367 -0.00017024062
-7.4885342e-05 -0.013001717 -0.00020190595
-0.00042871106 -0.015065465 -0.00023068517
-0.00086846604 -0.016967937 -0.00025667861
-0.001386105 -0.018696448 -0.00027997195
-0.0019630538 -0.020238984 -0.00030062473
-0.0025895289 -0.02158824 -0.00031874244
-0.0032517759 -0.022734379 -0.00033436637
-0.0039356402 -0.023670707 -0.00034754723
-0.004626906 -0.024393847 -0.00035834391
-0.005310908 -0.024900366 -0.00036678047
-0.0059728874 -0.025188532 -0.0003728669
-0.0065981438 -0.02525836 -0.00037659906
-0.007178627 -0.025117554 -0.00037805722
-0.0076891272 -0.024763037 -0.00037707962
-0.0081220297 -0.024203975 -0.00037369318
-0.0084651988 -0.023448769 -0.00036786031
-0.0087125096 -0.022508787 -0.00035958469
-0.0088428203 -0.021390682 -0.00034868237
-0.0088520069 -0.020108195 -0.00033513154
-0.0087376749 -0.018678391 -0.00031894163
-0.0084815165 -0.01710839 -0.00029985403
-0.008089141 -0.01542062 -0.00027795797
-0.0075457855 -0.013624171 -0.00025299043
-0.0068584215 -0.011741485 -0.00022502747
-0.006019521 -0.0097845923 -0.0001938702
-0.00502992 -0.0077720983 -0.00015946569
-0.003883559 -0.0057123387 -0.00012154678
-0.002594064 -0.0036340596 -8.0320897e-05
-0.0011606364 -0.0015497623 -3.5631907e-05
-0.061074097 -0.077778794 -0.0018629058
-0.066361733 -0.080646507 -0.0020151997
-0.072100684 -0.083617918 -0.0021830264
-0.0782362 -0.086646497 -0.0023660874
-0.084845416 -0.089752883 -0.0025672917
-0.09196727 -0.092935428 -0.0027878594
-0.091118053 -0.087930232 -0.0027702928
-0.087983213 -0.081103317 -0.0026866558
-0.084902354 -0.074719921 -0.0026064795
-0.081901364 -0.068796515 -0.0025304039
-0.078981839 -0.063299023 -0.0024583139
-0.076145336 -0.058196452 -0.0023895984
-0.073393375 -0.053460527 -0.0023242361
-0.070727423 -0.049065359 -0.0022620538
-0.068148896 -0.044987131 -0.0022027686
-0.065659173 -0.04120389 -0.0021462906
-0.063259579 -0.037695315 -0.0020925547
-0.060934249 -0.034418803 -0.0020407424
-0.058702976 -0.03138398 -0.0019915549
-0.0565827 -0.028594377 -0.0019457177
-0.054542385 -0.025992015 -0.0019016993
-0.05259959 -0.023584042 -0.001860406
-0.050755378 -0.021356447 -0.0018218991
-0.04901072 -0.019295955 -0.0017860708
-0.047366586 -0.017389975 -0.0017532132
-0.045812581 -0.015613722 -0.0017226512
-0.044372842 -0.013982189 -0.0016957816
-0.04302641 -0.012459622 -0.0016716492
-0.041794192 -0.011058111 -0.0016512983
-0.040658247 -0.0097461725 -0.0016340978
-0.039628882 -0.0085246377 -0.0016205581
-0.038706668 -0.0073836921 -0.0016109662
-0.037892114 -0.0063137738 -0.0016055459
-0.03718565 -0.0053055454 -0.0016044691
-0.036583528 -0.004342895 -0.0016077136
-0.036095124 -0.0034310631 -0.0016160851
-0.035713285 -0.0025474301 -0.0016294206
-0.035443995 -0.0016962969 -0.0016483341
-0.03528323 -0.00085614185 -0.0016728627
-0.035233576 -2.4597681e-05 -0.0017035467
-0.035295017 0.00080711936 -0.0017406248
-0.035467528 0.0016477909 -0.0017845427
-0.035753444 0.0025126662 -0.0018358537
-0.0361485 0.0033979439 -0.001894617
-0.036658168 0.0043258052 -0.0019616366
-0.037274841 0.0052917213 -0.0020370635
-0.038007066 0.0063192933 -0.0021217188
-0.038850397 0.0074111097 -0.0022160888
-0.039804302 0.0085769119 -0.002320613
-0.04086823 0.0098266834 -0.0024359017
-0.042050496 0.011180914 -0.0025631923
-0.04333334 0.012630517 -0.0027020022
-0.044724148 0.014195926 -0.0028535794
-0.046233427 0.015901396 -0.0030195438
-0.047850575 0.017747952 -0.0032000889
-0.049574625 0.019748189 -0.0033960429
-0.051404554 0.021915298 -0.0036082885
-0.053339317 0.02426317 -0.0038379754
-0.055377752 0.026806431 -0.0040860297
-0.057518709 0.029560601 -0.0043538897
-0.059760913 0.032542124 -0.0046426589
-0.062120441 0.03579301 -0.0049556494
-0.064579971 0.039311565 -0.0052927169
-0.067119271 0.043089803 -0.0056534978
-0.069773734 0.04720486 -0.006043992
-0.072523713 0.051654309 -0.0064642141
-0.075367592 0.05646427 -0.0069164331
-0.078303687 0.061663199 -0.0074029788
-0.081330262 0.067282245 -0.0079264073
-0.084468395 0.073401377 -0.0084935157
-0.087671235 0.079970703 -0.0091008311
-0.090959065 0.087074362 -0.0097550116
-0.09301161 0.093467265 -0.010316081
-0.085420117 0.090108469 -0.0098068453
-0.078454867 0.086858191 -0.0093306554
-0.071968533 0.083671138 -0.0088771991
-0.065971799 0.080573097 -0.0084491959
-0.060426887 0.077565879 -0.0080451164
-0.055299506 0.074651212 -0.007663263
-0.050558511 0.071830831 -0.0073027844
-0.046145048 0.069087043 -0.0069595338
-0.042095959 0.066460744 -0.0066382554
-0.038354378 0.063933462 -0.0063351821
-0.034874152 0.061489522 -0.0060472768
-0.031684302 0.05916534 -0.0057784538
-0.028719382 0.056928761 -0.0055237971
-0.026003722 0.054813083 -0.005286681
-0.023481127 0.052789059 -0.005062962
-0.021155754 0.050873481 -0.0048539867
-0.019012325 0.049067494 -0.0046594641
-0.017049909 0.04738389 -0.0044803387
-0.015226536 0.045799341 -0.0043134033
-0.013543766 0.044327334 -0.0041598901
-0.011988991 0.042968694 -0.0040194727
-0.010550108 0.041724242 -0.0038920208
-0.0092154406 0.040594708 -0.0037773445
-0.0079736793 0.039580695 -0.0036751316
-0.0068114568 0.038681012 -0.0035851239
-0.0057222969 0.037899554 -0.0035076493
-0.004694012 0.037235323 -0.0034422502
-0.0037156784 0.03668844 -0.0033890232
-0.0027785925 0.036259949 -0.003347862
-0.0018714494 0.03594948 -0.0033186642
-0.00098505872 0.035757564 -0.0033014494
-0.00010961478 0.035684343 -0.0032962814
0.00076465338 0.035729792 -0.0033030442
0.0016475122 0.035893947 -0.0033219012
0.0025487528 0.036176644 -0.0033527697
0.0034782281 0.036577754 -0.0033957807
0.0044458779 0.037097 -0.0034509494
0.0054617724 0.037734114 -0.0035184431
0.0065353494 0.038488135 -0.0035983163
0.007678553 0.039359674 -0.003690755
0.0089003965 0.040346999 -0.0037958475
0.010212573 0.041450083 -0.0039137616
0.011626316 0.042668309 -0.0040447726
0.013152081 0.043999944 -0.0041889069
0.014804055 0.045446116 -0.0043466296
0.016591027 0.047002774 -0.0045179171
0.018529687 0.048672237 -0.0047034603
0.020630846 0.050451115 -0.0049032117
0.022910101 0.05233952 -0.005117672
0.025380669 0.054334905 -0.0053471602
0.028059993 0.056437422 -0.0055922917
0.030962756 0.058644194 -0.0058532329
0.034106389 0.060953733 -0.0061305985
0.03751456 0.063368008 -0.0064254389
0.041200165 0.065880306 -0.0067376848
0.045189947 0.068492524 -0.0070683854
0.049504563 0.071201213 -0.0074183433
0.054172579 0.074006602 -0.0077885813
0.059214592 0.076902822 -0.0081794281
0.064671777 0.079894356 -0.0085931206
0.070565529 0.082972884 -0.0090296613
0.076935641 0.086138561 -0.0094908997
0.083827056 0.089391723 -0.0099787647
0.091279611 0.092728041 -0.010494572
0.091740705 0.088788122 -0.010195406
0.088417135 0.081520438 -0.009505027
0.085178874 0.074802503 -0.0088638226
0.082032286 0.068599373 -0.0082685929
0.078974493 0.062861919 -0.0077148764
0.076011509 0.057562161 -0.0072003454
0.073140629 0.05265953 -0.0067216698
0.070367478 0.048131123 -0.0062767942
0.067689456 0.043942932 -0.005862677
0.065111816 0.040075853 -0.0054777996
0.062632129 0.03650108 -0.0051197503
0.060255229 0.033202328 -0.0047871363
0.057980485 0.030157011 -0.0044782129
0.055807497 0.027344642 -0.0041914042
0.053740419 0.02475193 -0.0039253836
0.051778648 0.022360502 -0.0036787931
0.049924463 0.020156603 -0.0034507243
0.048175991 0.018122561 -0.0032395984
0.046536602 0.016247664 -0.0030447561
0.045004632 0.014516152 -0.0028649087
0.04358298 0.012918142 -0.0026993798
0.0422711 0.011440451 -0.0025471873
0.041070357 0.010072648 -0.002407552
0.039979503 0.0088017685 -0.0022796271
0.039000511 0.0076190843 -0.0021627634
0.038132958 0.0065134591 -0.0020561826
0.037377153 0.0054749912 -0.0019592624
0.036733281 0.0044940114 -0.00187127
0.036201451 0.0035610022 -0.0017916926
0.035781633 0.0026665705 -0.0017199034
0.035473801 0.0018016185 -0.0016552387
0.035277825 0.00095705461 -0.0015971764
0.03519357 0.00012406545 -0.0015452099
0.03522085 -0.00070702273 -0.0014987855
0.035359368 -0.0015438234 -0.0014573574
0.03560904 -0.0023963635 -0.0014204023
0.035966616 -0.0032668891 -0.001387386
0.036437381 -0.0041772858 -0.0013579258
0.037013993 -0.0051229475 -0.0013313246
0.0377049 -0.0061271228 -0.0013074557
0.03849934 -0.0071840938 -0.0012853092
0.039401717 -0.008310426 -0.0012647875
0.040411513 -0.0095156487 -0.001245242
0.041528203 -0.010809547 -0.0012262237
0.042741612 -0.0121914 -0.0012069518
0.044069439 -0.013692358 -0.0011875414
0.045491043 -0.01530059 -0.0011667759
0.047015239 -0.017037844 -0.001144428
0.0050805937 -0.0019767557 -0.00011699347
0.015309899 -0.0063697612 -0.00033226129
0.026529169 -0.01176165 -0.00054017943
0.03886272 -0.018320559 -0.0007386753
0.052510273 -0.026260806 -0.00092607486
5.1738882 -2.7382767 -0.08404348
5.4716501 -3.060509 -0.08115086
5.8104563 -3.4280865 -0.077817038
6.1987448 -3.8523772 -0.073931009
6.6490045 -4.3476725 -0.069353603
7.1782217 -4.933455 -0.063895121
6.8170419 -4.9202242 -0.05000278
6.4912562 -4.9164262 -0.037182037
6.8481584 -5.4375205 -0.027910864
6.8510933 -5.7020411 -0.016271105
5.6272593 -4.9055133 -0.0034873022
5.3702898 -4.90203 0.0064157271
5.1242971 -4.8985963 0.015755462
4.8918481 -4.8952646 0.024587324
4.6700087 -4.8920107 0.032955833
4.4594493 -4.8888588 0.040907897
4.2561202 -4.8857632 0.048466921
4.0609403 -4.88275 0.055670775
3.8746526 -4.8798409 0.062557369
3.6937969 -4.8769941 0.0691365
3.5205979 -4.8742533 0.075449899
3.3531666 -4.8715982 0.081509694
3.1898339 -4.8690109 0.087325744
3.0326853 -4.8665314 0.092935994
2.8800833 -4.8641405 0.098346218
2.7316859 -4.8618402 0.10357294
2.5871766 -4.8596315 0.10863137
2.4473336 -4.8575301 0.11353639
2.3097193 -4.8555059 0.1182908
2.1751771 -4.8535757 0.12290872
2.0770938 -4.9291654 0.12944515
2.0813341 -5.2702827 0.14321347
2.0855839 -5.6501851 0.15857542
2.0899074 -6.0833249 0.1760304
2.0942373 -6.5739946 0.19584209
2.0986061 -7.1396518 0.21865433
2.1030138 -7.7995276 0.24526931
2.1074958 -8.5866547 0.27692863
2.111985 -9.5265484 0.31480163
3.5009899 -17.66511 0.59753573
3.0892451 -17.664169 0.6111052
2.680788 -17.663328 0.62450504
2.2751644 -17.662592 0.63772774
1.8750485 -17.661959 0.65087044
1.4737588 -17.661423 0.66386628
1.0740047 -17.66099 0.6767512
0.67536718 -17.660658 0.68957698
0.2774322 -17.660429 0.70233297
-0.12021171 -17.660301 0.71503907
-0.51488978 -17.660275 0.72771114
-0.91317701 -17.660349 0.7403729
-1.3124037 -17.660524 0.75304252
-1.7098747 -17.660797 0.76569492
-2.1122203 -17.661173 0.77840257
-2.5167699 -17.661648 0.79117459
-2.9207942 -17.662218 0.80397505
-3.331053 -17.662893 0.81689751
-3.7448623 -17.663664 0.82990986
-4.1594439 -17.664526 0.84302807
-4.5817671 -17.665493 0.85630631
-5.0091238 -17.666555 0.86973369
-5.4420505 -17.667715 0.88336307
-5.8776798 -17.668957 0.89713132
-5.9766526 -16.701328 0.8611961
-5.9724612 -15.575041 0.81565672
-5.9683032 -14.573958 0.77517086
-5.9641814 -13.677492 0.73893648
-5.9601297 -12.875289 0.70653838
-5.9560876 -12.141791 0.67688406
-5.9520879 -11.472939 0.6498673
-5.9481339 -10.859989 0.62511182
-5.9442277 -10.295704 0.6023472
-5.940371 -9.7740364 0.58132756
-5.9365363 -9.286274 0.56167054
-5.9327855 -8.835577 0.54354554
-5.9290905 -8.4143715 0.52663273
-5.9254527 -8.0194931 0.51080328
-5.9218473 -7.6454148 0.49583152
-5.9183311 -7.2955036 0.48185688
-5.9148779 -6.9647222 0.46868777
-5.9114642 -6.6488872 0.45612592
-5.9081182 -6.3489976 0.44425678
-5.9048662 -6.0657496 0.43305367
-5.9016604 -5.7934747 0.42234409
-5.8985276 -5.533277 0.4121359
-5.8954692 -5.284133 0.40241468
-5.892487 -5.0451226 0.39312738
-5.8895826 -4.8154202 0.38423917
-5.8867574 -4.5942774 0.37571859
-5.8840127 -4.3810172 0.3675499
-5.88133 -4.1734672 0.35966066
-5.8787518 -3.9742315 0.35213357
-5.8762393 -3.7797244 0.34483257
-5.8738327 -3.5924423 0.33783218
-5.8714962 -3.409066 0.33106017
-5.8692493 -3.2306502 0.32451421
-5.8670936 -3.0568192 0.31818947
-5.8650303 -2.8872244 0.31207037
-5.8630605 -2.7215421 0.30614236
-5.8611851 -2.5594707 0.30041432
-5.8593922 -2.3995285 0.29482907
-5.8577094 -2.2438731 0.28943101
-5.856112 -2.0898757 0.2841669
-5.8546257 -1.9396336 0.279075
-5.8532276 -1.7906284 0.27410987
-5.8519311 -1.6438017 0.26927987
-5.8507366 -1.4989489 0.26457557
-5.8496447 -1.3558748 0.2599985
-5.8486485 -1.2133261 0.25552002
-5.847764 -1.0732656 0.2511628
-5.8469839 -0.93444186 0.24691842
-5.8463035 -0.79564703 0.24276298
-5.8457298 -0.65776998 0.23871799
-5.8452635 -0.52064759 0.23475569
-5.8449039 -0.38411975 0.2308795
-5.8446517 -0.24802919 0.22710322
-5.8445072 -0.11222027 0.22339992
-5.8444705 0.024481405 0.21977374
-5.8445425 0.16019031 0.21622942
-5.8447237 0.29710364 0.21276222
-5.8450141 0.43435955 0.2093662
-5.8454132 0.57211781 0.20603569
-5.8459215 0.71054018 0.20276514
-5.8465385 0.84979159 0.19956975
-5.8472638 0.99004042 0.19643402
-5.8481035 1.1325197 0.19336995
-5.8490453 1.2752981 0.19034937
-5.8501019 1.4206936 0.18739198
-5.8512664 1.5678421 0.18449673
-5.8525386 1.7169474 0.181659
-5.8539171 1.8682232 0.17886348
-5.8554015 2.0218937 0.17612706
-5.8569913 2.1781955 0.17344548
-5.8586979 2.3385689 0.17081578
-5.860496 2.5009224 0.1682318
-5.862411 2.6679482 0.16570362
-5.8644285 2.8387647 0.16322616
-5.8665476 3.0137017 0.16080704
-5.8687673 3.193115 0.15841956
-5.8710861 3.3773878 0.15609486
-5.8735027 3.5669346 0.15380608
-5.8760347 3.7636635 0.15159106
-5.8786635 3.9667015 0.14941852
-5.8813672 4.1750369 0.14727886
-5.758503 4.2985129 0.14211725
-5.4751759 4.2946296 0.13318571
-5.2088881 4.290823 0.12491389
-4.9578938 4.2870951 0.11723357
-4.718987 4.2834206 0.11006363
-4.4942894 4.2798543 0.10340793
-4.2808514 4.276371 0.097196937
-4.0761895 4.2729478 0.091376193
-3.880964 4.2696128 0.08593148
-3.6943393 4.2663665 0.080832906
-3.5168383 4.2632332 0.076065294
-3.343986 4.260148 0.071569145
-3.1789861 4.2571788 0.067359418
-3.0200257 4.2543049 0.063404173
-2.8666122 4.2515278 0.059687573
-2.7172403 4.2488303 0.056186322
-2.5736482 4.2462525 0.052900769
-2.4333749 4.2437582 0.049806412
-2.2980936 4.2413845 0.046903405
-2.1655231 4.2390985 0.04417048
-2.0363598 4.2369189 0.041604858
-1.9103274 4.2348471 0.039196208
-1.7871697 4.2328839 0.036939144
-1.6666474 4.2310309 0.034825791
