# .PCD v0.7 - Point Cloud Data file format
VERSION 0.7
FIELDS x y z
SIZE 4 4 4
TYPE F F F
COUNT 1 1 1
WIDTH 61
HEIGHT 1
VIEWPOINT 0 0 0 1 0 0 0
POINTS 61
DATA ascii
-0.30597243 1.4774849 0.72012961
-0.26777565 1.4676492 0.71190864
-0.23294462 1.4752535 0.71260196
-0.20059684 1.5020036 0.72294217
-0.30805907 1.4888695 0.97305042
-0.26993865 1.4795043 0.96250504
-0.2353273 1.487142 0.9636786
-0.20301695 1.5134807 0.9774819
-0.31620207 1.5056953 1.2784995
-0.27771333 1.4940408 1.2626539
-0.24264902 1.4996527 1.2622138
-0.21004696 1.5225093 1.2770265
-0.32805789 1.5211835 1.4921956
-0.28802958 1.504198 1.46786
-0.25241649 1.5062819 1.4631815
-0.21925642 1.5243609 1.474894
-0.29829916 1.5023917 1.3751534
-0.2614744 1.4997262 1.3656862
-0.22746719 1.5129855 1.3715279
-0.28965512 1.4873743 1.0842997
-0.25310594 1.4871376 1.0785234
-0.21927801 1.5034635 1.0853974
-0.2919046 1.4755776 0.80950755
-0.25475171 1.4730157 0.80393553
-0.2205836 1.4873222 0.80807739
-0.28919995 1.465937 0.59527564
-0.25204471 1.4635996 0.59137058
-0.21796425 1.478372 0.59476608
-0.2817961 1.4578644 0.41977817
-0.24526995 1.4581701 0.4178873
-0.21162532 1.4758759 0.42125595
-0.27572706 1.4522963 0.25218874
-0.23976766 1.4547789 0.25142613
-0.2064531 1.4751545 0.25392801
-0.29109731 1.4541578 0.078141622
-0.25349769 1.4491906 0.07739044
-0.21908382 1.4617352 0.077650793
-0.2751098 1.4504265 0.14522985
-0.23912838 1.4529546 0.14455643
-0.20593646 1.4733362 0.14576401
-0.27519521 1.453648 0.31449756
-0.23954885 1.4564612 0.31347048
-0.20646933 1.4769605 0.31644627
-0.283301 1.4601783 0.4799321
-0.24711162 1.4599268 0.47750878
-0.21362504 1.4766128 0.48089194
-0.28920662 1.4686705 0.66435522
-0.25250688 1.4665895 0.66036671
-0.21877266 1.4811678 0.66426599
-0.3107596 1.4875224 0.90710765
-0.27229291 1.4763499 0.89609718
-0.23738384 1.4826996 0.89633083
-0.20485476 1.507213 0.90803605
-0.32248387 1.5068189 1.2099466
-0.28283936 1.491178 1.1917059
-0.24753192 1.494248 1.1892304
-0.21455792 1.5138123 1.2005681
-0.33917135 1.5299032 1.4769183
-0.29718938 1.5050516 1.4453208
-0.26091105 1.5031613 1.4368834
-0.22723433 1.5168383 1.4441341
